# .PCD v.7 - Point Cloud Data file format
VERSION .7
FIELDS x y z
SIZE 4 4 4
TYPE F F F
COUNT 1 1 1
WIDTH 1874
HEIGHT 1
VIEWPOINT 0 0 0 1 0 0 0
POINTS 1874
DATA ascii
357.538 178.559 -81.6379 
357.538 178.559 -124.765 
354.736 180.176 -147.424 
361.785 182.333 -29.0087 
361.785 182.333 -52.3995 
358.55 182.333 -53.1304 
358.55 182.333 -81.6379 
358.55 182.333 -124.765 
355.314 182.333 -147.424 
360.34 187.726 -29.0087 
360.34 187.726 -52.3995 
357.538 186.108 -53.1304 
357.538 186.108 -81.6379 
357.538 186.108 -124.765 
354.736 184.49 -147.424 
356.393 191.674 -29.0087 
356.393 191.674 -52.3995 
354.775 188.872 -53.1304 
354.775 188.872 -81.6379 
354.775 188.872 -124.765 
353.157 186.069 -147.424 
351 193.119 -29.0087 
351 193.119 -52.3995 
351 189.883 -53.1304 
351 189.883 -81.6379 
351 189.883 -124.765 
351 186.647 -147.424 
345.607 191.674 -29.0087 
345.607 191.674 -52.3995 
347.225 188.872 -53.1304 
347.225 188.872 -81.6379 
347.225 188.872 -124.765 
348.843 186.069 -147.424 
341.66 187.726 -29.0087 
341.66 187.726 -52.3995 
344.462 186.108 -53.1304 
344.462 186.108 -81.6379 
344.462 186.108 -124.765 
347.264 184.49 -147.424 
349 -169.667 -31.3421 
349 -169.667 -154.875 
338.215 -169.667 -31.3421 
338.215 -169.667 -54.7329 
341.45 -169.667 -55.4637 
341.45 -169.667 -83.9713 
341.45 -169.667 -127.098 
344.686 -169.667 -149.758 
339.66 -164.274 -31.3421 
339.66 -164.274 -54.7329 
342.462 -165.892 -55.4637 
342.462 -165.892 -83.9713 
342.462 -165.892 -127.098 
345.264 -167.51 -149.758 
343.607 -160.326 -31.3421 
343.607 -160.326 -54.7329 
345.225 -163.128 -55.4637 
345.225 -163.128 -83.9713 
345.225 -163.128 -127.098 
346.843 -165.931 -149.758 
349 -158.881 -31.3421 
349 -158.881 -54.7329 
349 -162.117 -55.4637 
349 -162.117 -83.9713 
349 -162.117 -127.098 
349 -165.353 -149.758 
354.393 -160.326 -31.3421 
354.393 -160.326 -54.7329 
352.775 -163.128 -55.4637 
352.775 -163.128 -83.9713 
352.775 -163.128 -127.098 
351.157 -165.931 -149.758 
358.34 -164.274 -31.3421 
358.34 -164.274 -54.7329 
355.538 -165.892 -55.4637 
355.538 -165.892 -83.9713 
355.538 -165.892 -127.098 
352.736 -167.51 -149.758 
359.785 -169.667 -31.3421 
359.785 -169.667 -54.7329 
356.55 -169.667 -55.4637 
356.55 -169.667 -83.9713 
356.55 -169.667 -127.098 
353.314 -169.667 -149.758 
358.34 -175.059 -31.3421 
358.34 -175.059 -54.7329 
355.538 -173.441 -55.4637 
355.538 -173.441 -83.9713 
355.538 -173.441 -127.098 
352.736 -171.824 -149.758 
354.393 -179.007 -31.3421 
354.393 -179.007 -54.7329 
352.775 -176.205 -55.4637 
352.775 -176.205 -83.9713 
352.775 -176.205 -127.098 
351.157 -173.403 -149.758 
349 -180.452 -31.3421 
349 -180.452 -54.7329 
349 -177.216 -55.4637 
349 -177.216 -83.9713 
349 -177.216 -127.098 
349 -173.981 -149.758 
343.607 -179.007 -31.3421 
343.607 -179.007 -54.7329 
345.225 -176.205 -55.4637 
345.225 -176.205 -83.9713 
345.225 -176.205 -127.098 
346.843 -173.403 -149.758 
339.66 -175.059 -31.3421 
339.66 -175.059 -54.7329 
342.462 -173.441 -55.4637 
342.462 -173.441 -83.9713 
342.462 -173.441 -127.098 
345.264 -171.824 -149.758 
-249 12.3333 -7.39775 
-249 12.3333 -150.028 
-257.612 12.3333 -7.39775 
-257.612 12.3333 -34.4047 
-255.029 12.3333 -35.2485 
-255.029 12.3333 -68.1632 
-255.029 12.3333 -117.957 
-252.445 12.3333 -144.12 
-256.458 8.02721 -7.39775 
-256.458 8.02721 -34.4047 
-254.221 9.31908 -35.2485 
-254.221 9.31908 -68.1632 
-254.221 9.31908 -117.957 
-251.983 10.6109 -144.12 
-253.306 4.87489 -7.39775 
-253.306 4.87489 -34.4047 
-252.014 7.11247 -35.2485 
-252.014 7.11247 -68.1632 
-252.014 7.11247 -117.957 
-250.722 9.35001 -144.12 
-249 3.72107 -7.39775 
-249 3.72107 -34.4047 
-249 6.30481 -35.2485 
-249 6.30481 -68.1632 
-249 6.30481 -117.957 
-249 8.88849 -144.12 
-244.694 4.87489 -7.39775 
-244.694 4.87489 -34.4047 
-245.986 7.11247 -35.2485 
-245.986 7.11247 -68.1632 
-245.986 7.11247 -117.957 
-247.278 9.35001 -144.12 
-241.542 8.02721 -7.39775 
-241.542 8.02721 -34.4047 
-243.779 9.31908 -35.2485 
-243.779 9.31908 -68.1632 
-243.779 9.31908 -117.957 
-246.017 10.6109 -144.12 
-240.388 12.3333 -7.39775 
-240.388 12.3333 -34.4047 
-242.971 12.3333 -35.2485 
-242.971 12.3333 -68.1632 
-242.971 12.3333 -117.957 
-245.555 12.3333 -144.12 
-241.542 16.6395 -7.39775 
-241.542 16.6395 -34.4047 
-243.779 15.3476 -35.2485 
-243.779 15.3476 -68.1632 
-243.779 15.3476 -117.957 
-246.017 14.0557 -144.12 
-244.694 19.7918 -7.39775 
-244.694 19.7918 -34.4047 
-245.986 17.5542 -35.2485 
-245.986 17.5542 -68.1632 
-245.986 17.5542 -117.957 
-247.278 15.3167 -144.12 
-249 20.9456 -7.39775 
-249 20.9456 -34.4047 
-249 18.3618 -35.2485 
-249 18.3618 -68.1632 
-249 18.3618 -117.957 
-249 15.7782 -144.12 
-253.306 19.7918 -7.39775 
-253.306 19.7918 -34.4047 
-252.014 17.5542 -35.2485 
-252.014 17.5542 -68.1632 
-252.014 17.5542 -117.957 
-250.722 15.3167 -144.12 
-256.458 16.6395 -7.39775 
-256.458 16.6395 -34.4047 
-254.221 15.3476 -35.2485 
-254.221 15.3476 -68.1632 
-254.221 15.3476 -117.957 
-251.983 14.0557 -144.12 
-206 -29.7499 23.9167 
-194 -29.7499 44.9167 
-194.5 -29.7499 51.9167 
-187.5 -29.7499 51.9167 
-187 -29.7499 46.0833 
-194.5 -29.7499 23.9167 
-198 -29.7499 19.8334 
-205 -29.7499 19.25 
-206 45.3089 23.9167 
-194 45.3089 44.9167 
-194.5 45.3089 51.9167 
-187.5 45.3089 51.9167 
-187 45.3089 46.0833 
-194.5 45.3089 23.9167 
-198 45.3089 19.8334 
-205 45.3089 19.25 
-102 -30.3333 23.3334 
-89.9999 -23 43.75 
-90.4999 -21.5 51.3334 
-83.4999 -22 51.3334 
-82.9999 -22.5 44.3334 
-90.4999 -30.3333 23.3334 
-93.9999 -30.3333 19.2501 
-101 -30.3333 18.6667 
-102 44.7256 23.3334 
-89.9999 37 44.3334 
-90.4999 35.5 50.75 
-83.4999 36.5 51.3334 
-82.9999 36.5 43.75 
-90.4999 44.7256 23.3334 
-93.9999 44.7256 19.2501 
-101 44.7256 18.6667 
863.5 367.329 -34.7401 
861.101 366.808 -34.6744 
861.438 367.925 -34.8155 
885.5 358.069 -33.5704 
861.425 367.881 -35.202 
863.5 366.577 -40.6928 
858.808 359.213 -33.7149 
861.229 367.234 -40.7758 
885.5 357.317 -39.5231 
883.5 341.865 -31.5233 
860.858 366.004 -40.6204 
856.476 351.489 -32.7391 
883.5 341.113 -37.4759 
858.584 358.471 -39.6688 
853.57 341.865 -31.5233 
874.5 271.259 -22.6037 
842.567 305.421 -26.9193 
874.5 270.507 -28.5564 
856.271 350.81 -38.701 
867.5 196.024 -13.0993 
842.395 304.852 -32.8952 
842.079 303.806 -26.7153 
853.343 341.113 -37.4759 
867.5 195.272 -19.052 
837.5 274.731 -23.0424 
840.104 297.264 -31.9366 
803.5 163.615 -9.00505 
837.5 273.979 -28.9951 
821.873 236.88 -18.2606 
835.029 280.453 -23.7651 
803.5 162.863 -14.9577 
802.494 172.694 -10.152 
821.855 236.819 -24.3006 
833.321 274.797 -23.0506 
820.447 232.157 -17.664 
834.895 280.01 -29.7569 
799.685 163.389 -10.7881 
802.433 172.492 -16.1742 
812.597 206.155 -14.3791 
800.378 165.686 -9.26666 
833.095 274.048 -29.0038 
820.263 231.547 -23.6345 
799.753 163.615 -9.00505 
799.571 163.01 -13.7882 
812.382 205.442 -20.3368 
800.189 165.059 -15.2352 
800.125 164.845 -9.16048 
799.526 162.863 -14.9577 
831.5 360.384 -33.8628 
802.5 370.801 -35.1788 
814.5 377.746 -36.0561 
808.5 341.865 -31.5233 
802.5 370.049 -41.1315 
831.5 376.589 -35.9099 
723.5 288.621 -24.797 
814.5 376.994 -42.0088 
723.5 287.869 -30.7497 
763.5 275.889 -23.1886 
831.5 359.632 -39.8155 
808.5 341.113 -37.4759 
831.5 375.837 -41.8626 
663.5 223.051 -22.5613 
663.5 223.803 -16.6086 
763.5 275.137 -29.1413 
721.5 218.016 -15.8775 
721.5 217.264 -21.8302 
617.5 174.437 -16.42 
617.5 175.189 -10.4673 
798.5 208.756 -14.7077 
798.5 208.004 -20.6604 
689.5 170.559 -9.88239 
689.5 169.807 -15.8351 
735.5 170.559 -9.88239 
735.5 169.807 -15.8351 
783.5 163.615 -9.00505 
783.5 162.863 -14.9577 
847.5 -354.495 -37.0735 
839.058 -352.663 -36.842 
839.872 -356.703 -37.3523 
869.5 -345.236 -35.9037 
839.838 -356.533 -38.7788 
847.5 -353.743 -43.0261 
837.834 -346.593 -36.0751 
839.729 -355.992 -43.3102 
869.5 -344.484 -41.8564 
867.5 -329.031 -33.8566 
838.899 -351.877 -42.7903 
836.518 -340.065 -35.2505 
867.5 -328.279 -39.8092 
837.684 -345.848 -42.0287 
834.293 -329.031 -33.8566 
858.5 -258.426 -24.937 
826.877 -292.255 -29.2106 
858.5 -257.674 -30.8897 
836.376 -339.364 -41.2095 
851.5 -183.19 -15.4326 
826.753 -291.636 -35.1802 
823.669 -276.341 -27.2003 
834.141 -328.279 -39.8092 
851.5 -182.438 -21.3853 
821.5 -261.898 -25.3757 
823.681 -276.403 -33.2558 
799.553 -156.743 -13.2305 
821.5 -261.146 -31.3284 
811.136 -214.187 -19.3484 
820.993 -263.072 -25.5239 
799.585 -156.901 -12.1115 
799.416 -156.064 -18.0534 
811.005 -213.536 -25.3138 
820.759 -261.91 -25.3771 
807.306 -195.19 -16.9485 
820.89 -262.559 -31.5069 
806.558 -191.483 -16.4802 
806.412 -190.758 -22.4363 
820.608 -261.16 -31.3301 
809.172 -204.448 -24.1658 
815.5 -347.551 -36.1961 
786.5 -357.968 -37.5121 
798.5 -364.913 -38.3895 
792.5 -329.031 -33.8566 
786.5 -357.216 -43.4648 
815.5 -363.755 -38.2432 
707.5 -275.788 -27.1304 
798.5 -364.161 -44.3421 
707.5 -275.036 -33.083 
747.5 -263.056 -25.5219 
815.5 -346.799 -42.1488 
792.5 -328.279 -39.8092 
815.5 -363.003 -44.1959 
647.5 -210.217 -24.8946 
647.5 -210.969 -18.9419 
747.5 -262.303 -31.4746 
705.5 -205.182 -18.2108 
705.5 -204.43 -24.1635 
601.5 -161.604 -18.7533 
601.5 -162.356 -12.8006 
782.5 -195.922 -17.041 
782.5 -195.17 -22.9937 
673.5 -157.726 -12.2157 
787.5 -150.781 -11.3384 
673.5 -156.974 -18.1684 
787.5 -150.029 -17.291 
719.5 -157.726 -12.2157 
767.5 -150.781 -11.3384 
719.5 -156.974 -18.1684 
767.5 -150.029 -17.291 
520.545 -340.942 -20.6004 
517.814 -346.489 -20.8136 
516.595 -351.906 -21.0308 
516.693 -358.182 -21.2916 
518.413 -364.219 -21.5524 
521.639 -369.604 -21.7955 
526.149 -373.972 -22.0042 
531.638 -377.024 -22.1643 
537.731 -378.552 -22.265 
544.012 -378.453 -22.2993 
550.055 -376.733 -22.265 
554.913 -374.286 -22.1933 
559.677 -369.437 -22.0214 
563.535 -361.751 -21.7263 
564.405 -357.427 -21.5524 
564.307 -351.151 -21.2916 
562.587 -345.115 -21.0308 
559.361 -339.729 -20.7877 
554.851 -335.361 -20.579 
549.362 -332.309 -20.4188 
543.269 -330.781 -20.3182 
536.988 -330.88 -20.2838 
530.945 -332.601 -20.3182 
526.905 -334.572 -20.3752 
552.929 -372.273 -22.0977 
541.716 -363.953 -21.6841 
526.58 -373.393 -21.9828 
531.4 -356.299 -21.3035 
520.336 -348.09 -20.8954 
535.83 -347.686 -20.9735 
541.659 -331.263 -20.3283 
546.072 -347.171 -21.0149 
562.591 -346.793 -21.1004 
548.688 -357.226 -21.4478 
578.386 -391.703 -23.0592 
556.557 -375.506 -22.254 
560.445 -370.277 -22.0609 
582.273 -386.473 -22.8661 
583.42 -384.619 -22.7963 
561.74 -368.534 -21.9966 
565.628 -363.304 -21.8036 
587.307 -379.39 -22.6032 
515.721 -344.936 -20.7364 
494.51 -329.468 -19.9652 
498.268 -324.413 -19.7786 
519.349 -340.055 -20.5562 
520.645 -338.312 -20.4919 
499.414 -322.559 -19.7088 
503.431 -317.155 -19.5093 
524.791 -332.734 -20.286 
560.973 -367.694 -21.9571 
521.971 -339.025 -20.5296 
540.63 -354.492 -21.2851 
-163.17 70.8168 10.4849 
-163.901 70.8584 14.4624 
-165.375 70.8932 17.7829 
-167.875 70.9273 21.0411 
-171.133 70.9535 23.5413 
-174.928 70.97 25.113 
-179 70.9756 25.649 
-183.072 70.97 25.113 
-186.867 70.9535 23.5413 
-190.125 70.9273 21.0411 
-192.625 70.8932 17.7829 
-194.221 70.8599 14.6044 
-194.83 70.8138 10.2008 
-193.855 70.7558 4.66072 
-192.625 70.7285 2.05052 
-190.125 70.6943 -1.20767 
-186.867 70.6681 -3.70782 
-183.072 70.6517 -5.27951 
-179 70.6461 -5.81557 
-174.928 70.6517 -5.27951 
-171.133 70.6681 -3.70782 
-167.875 70.6943 -1.20767 
-165.375 70.7285 2.05052 
-164.023 70.7558 4.66072 
-192.394 70.8569 14.3203 
-183.262 70.8569 14.3203 
-179 70.9706 25.1773 
-174.86 70.8569 14.3203 
-165.849 70.8569 14.3203 
-173.825 70.7915 8.06999 
-170.476 70.6774 -2.82747 
-179 70.7469 3.80838 
-187.524 70.6774 -2.82747 
-184.297 70.7915 8.06999 
-213.338 70.8599 14.6044 
-195.56 70.8599 14.6044 
-195.56 70.8153 10.3428 
-213.338 70.8153 10.3428 
-213.216 70.8004 8.92232 
-195.56 70.8004 8.92232 
-195.56 70.7558 4.66071 
-213.216 70.7558 4.66071 
-162.196 70.8584 14.4624 
-145.027 70.8599 14.6044 
-145.027 70.8168 10.4849 
-162.196 70.8168 10.4849 
-162.196 70.8019 9.06438 
-144.905 70.8019 9.06438 
-144.905 70.7558 4.66072 
-162.196 70.7543 4.51866 
-194.83 70.7989 8.78026 
-163.17 70.8004 8.92232 
-179 70.8093 9.77463 
-163.17 -56.6726 11.0683 
-163.901 -56.7142 15.0457 
-165.375 -56.749 18.3662 
-167.875 -56.7831 21.6245 
-171.133 -56.8093 24.1246 
-174.928 -56.8258 25.6963 
-179 -56.8314 26.2324 
-183.072 -56.8258 25.6963 
-186.867 -56.8093 24.1246 
-190.125 -56.7831 21.6245 
-192.625 -56.749 18.3662 
-194.221 -56.7157 15.1878 
-194.83 -56.6696 10.7841 
-193.855 -56.6116 5.24406 
-192.625 -56.5842 2.63387 
-190.125 -56.5501 -0.624329 
-186.867 -56.5239 -3.12448 
-183.072 -56.5075 -4.69617 
-179 -56.5019 -5.23222 
-174.928 -56.5075 -4.69617 
-171.133 -56.5239 -3.12448 
-167.875 -56.5501 -0.624329 
-165.375 -56.5842 2.63387 
-164.023 -56.6116 5.24406 
-192.394 -56.7127 14.9037 
-183.262 -56.7127 14.9037 
-179 -56.8264 25.7606 
-174.86 -56.7127 14.9037 
-165.849 -56.7127 14.9037 
-173.825 -56.6473 8.65334 
-170.476 -56.5332 -2.24413 
-179 -56.6026 4.39172 
-187.524 -56.5332 -2.24413 
-184.297 -56.6473 8.65334 
-213.338 -56.7157 15.1878 
-195.56 -56.7157 15.1878 
-195.56 -56.6711 10.9262 
-213.338 -56.6711 10.9262 
-213.216 -56.6562 9.50566 
-195.56 -56.6562 9.50566 
-195.56 -56.6116 5.24405 
-213.216 -56.6116 5.24405 
-162.196 -56.7142 15.0457 
-145.027 -56.7157 15.1878 
-145.027 -56.6726 11.0683 
-162.196 -56.6726 11.0683 
-162.196 -56.6577 9.64772 
-144.905 -56.6577 9.64772 
-144.905 -56.6116 5.24406 
-162.196 -56.6101 5.10201 
-194.83 -56.6547 9.3636 
-163.17 -56.6562 9.50566 
-179 -56.6651 10.358 
421.704 -288.143 -19.7801 
489.704 -245.424 -17.9897 
493.704 -350.964 -22.4131 
559.704 -313.272 -20.8333 
565.704 -406.247 -24.7301 
633.704 -381.119 -23.6769 
649.704 -471.581 -27.4685 
713.704 -448.966 -26.5206 
715.704 -519.326 -29.4695 
769.704 -486.659 -28.1004 
755.704 -514.3 -29.2589 
477.704 -124.807 -12.9343 
553.704 -207.731 -16.4099 
625.704 -288.143 -19.7801 
691.704 -358.503 -22.7291 
759.704 -433.889 -25.8887 
799.704 -469.069 -27.3631 
817.704 -486.659 -28.1004 
793.704 -504.249 -28.8376 
757.704 -529.377 -29.8908 
727.704 -536.916 -30.2068 
691.704 -534.403 -30.1015 
605.704 -486.659 -28.1004 
515.704 -428.863 -25.678 
427.704 -371.067 -23.2557 
359.704 -325.836 -21.3599 
279.704 -273.066 -19.1482 
323.704 -237.886 -17.6737 
361.704 -210.244 -16.5152 
405.704 -177.577 -15.146 
447.704 -147.423 -13.8822 
477.704 -124.549 -18.4227 
553.704 -207.473 -21.8983 
625.704 -287.885 -25.2685 
691.704 -358.245 -28.2175 
759.704 -433.63 -31.3771 
799.704 -468.81 -32.8516 
817.704 -486.4 -33.5888 
793.704 -503.99 -34.326 
757.704 -529.119 -35.3792 
727.704 -536.657 -35.6952 
691.704 -534.145 -35.5899 
605.704 -486.4 -33.5888 
515.704 -428.605 -31.1664 
427.704 -370.809 -28.7441 
359.704 -325.577 -26.8483 
279.704 -272.807 -24.6366 
323.704 -237.627 -23.1621 
361.704 -209.986 -22.0036 
405.704 -177.319 -20.6345 
447.704 -147.165 -19.3706 
477.704 -124.291 -23.9112 
553.704 -207.215 -27.3867 
625.704 -287.626 -30.757 
691.704 -357.986 -33.7059 
759.704 -433.372 -36.8655 
799.704 -468.552 -38.34 
817.704 -486.142 -39.0772 
793.704 -503.732 -39.8145 
757.704 -528.861 -40.8677 
727.704 -536.399 -41.1836 
691.704 -533.886 -41.0783 
605.704 -486.142 -39.0772 
515.704 -428.346 -36.6549 
427.704 -370.551 -34.2325 
359.704 -325.319 -32.3368 
279.704 -272.549 -30.125 
323.704 -237.369 -28.6506 
361.704 -209.728 -27.4921 
405.704 -177.061 -26.1229 
447.704 -146.906 -24.8591 
421.704 -287.626 -30.757 
489.704 -244.908 -28.9665 
493.704 -350.448 -33.39 
559.704 -312.755 -31.8102 
565.704 -405.731 -35.707 
633.704 -380.602 -34.6538 
649.704 -471.065 -38.4453 
713.704 -448.449 -37.4974 
715.704 -518.809 -40.4464 
769.704 -486.142 -39.0772 
755.704 -513.783 -40.2358 
437.704 300.976 -17.4468 
505.704 258.258 -15.6563 
509.704 363.798 -20.0798 
575.704 326.105 -18.5 
581.704 419.081 -22.3968 
649.704 393.952 -21.3436 
665.704 484.415 -25.1351 
729.704 461.799 -24.1873 
731.704 532.159 -27.1362 
785.704 499.492 -25.7671 
771.704 527.133 -26.9256 
493.704 137.641 -10.601 
569.704 220.565 -14.0766 
641.704 300.976 -17.4468 
707.704 371.336 -20.3958 
775.704 446.722 -23.5553 
815.704 481.902 -25.0298 
833.704 499.492 -25.7671 
809.704 517.082 -26.5043 
773.704 542.211 -27.5575 
743.704 549.749 -27.8735 
707.704 547.236 -27.7681 
621.704 499.492 -25.7671 
531.704 441.696 -23.3447 
443.704 383.901 -20.9223 
375.704 338.669 -19.0266 
295.704 285.899 -16.8149 
339.704 250.719 -15.3404 
377.704 223.078 -14.1819 
421.704 190.411 -12.8127 
463.704 160.256 -11.5489 
493.704 137.382 -16.0894 
569.704 220.307 -19.565 
641.704 300.718 -22.9352 
707.704 371.078 -25.8842 
775.704 446.464 -29.0438 
815.704 481.644 -30.5182 
833.704 499.234 -31.2555 
809.704 516.824 -31.9927 
773.704 541.952 -33.0459 
743.704 549.491 -33.3619 
707.704 546.978 -33.2566 
621.704 499.234 -31.2555 
531.704 441.438 -28.8331 
443.704 383.642 -26.4108 
375.704 338.411 -24.515 
295.704 285.641 -22.3033 
339.704 250.461 -20.8288 
377.704 222.819 -19.6703 
421.704 190.152 -18.3011 
463.704 159.998 -17.0373 
493.704 137.124 -21.5779 
569.704 220.048 -25.0534 
641.704 300.46 -28.4236 
707.704 370.82 -31.3726 
775.704 446.205 -34.5322 
815.704 481.385 -36.0067 
833.704 498.975 -36.7439 
809.704 516.565 -37.4812 
773.704 541.694 -38.5344 
743.704 549.233 -38.8503 
707.704 546.72 -38.745 
621.704 498.975 -36.7439 
531.704 441.18 -34.3216 
443.704 383.384 -31.8992 
375.704 338.153 -30.0034 
295.704 285.383 -27.7917 
339.704 250.203 -26.3173 
377.704 222.561 -25.1587 
421.704 189.894 -23.7896 
463.704 159.74 -22.5257 
437.704 300.46 -28.4237 
505.704 257.741 -26.6332 
509.704 363.281 -31.0567 
575.704 325.588 -29.4769 
581.704 418.564 -33.3737 
649.704 393.436 -32.3205 
665.704 483.898 -36.112 
729.704 461.283 -35.1641 
731.704 531.643 -38.1131 
785.704 498.975 -36.7439 
771.704 526.617 -37.9025 
193 173.901 -4.77919 
329 171.777 -3.98289 
422 173.901 -4.77919 
262 221.665 -6.30959 
329 221.665 -6.30959 
399 222.912 -6.59758 
323 273.149 -9.17465 
378 273.149 -9.17465 
420 271.893 -9.12199 
365 317.114 -11.2531 
388 317.114 -11.2531 
410 318.371 -11.3058 
98 173.842 -6.19122 
182 221.586 -8.19231 
262 273.1 -10.3513 
332 317.075 -12.1945 
371 340.947 -13.195 
398 354.768 -13.7743 
412 342.204 -13.2477 
425 318.331 -12.2471 
434 299.485 -11.4572 
450 271.844 -10.2987 
460 244.202 -9.14018 
454 221.586 -8.19229 
473 222.843 -8.24495 
486 201.484 -7.34973 
500 173.842 -6.19122 
510 143.688 -4.92738 
497 143.737 -3.75069 
471 143.767 -3.04466 
379 143.816 -1.86797 
210 143.806 -2.1033 
92 142.491 -3.46268 
52 142.431 -4.87473 
98 172.997 -26.3632 
182 220.741 -28.3642 
262 272.255 -30.5233 
332 316.23 -32.3664 
371 340.102 -33.3669 
398 353.922 -33.9462 
412 341.358 -33.4196 
425 317.486 -32.4191 
434 298.64 -31.6292 
450 270.998 -30.4706 
460 243.357 -29.3121 
454 220.741 -28.3642 
473 221.997 -28.4169 
486 200.638 -27.5217 
500 172.997 -26.3632 
510 142.842 -25.0993 
497 142.892 -23.9226 
471 142.921 -23.2166 
379 142.971 -22.0399 
210 142.961 -22.2753 
92 141.645 -23.6346 
52 141.586 -25.0467 
193 172.937 -27.7752 
329 170.754 -28.3909 
422 172.937 -27.7752 
262 220.662 -30.247 
329 220.662 -30.247 
399 221.928 -30.0643 
323 272.205 -31.7 
378 272.205 -31.7 
420 270.949 -31.6473 
365 316.19 -33.3078 
388 316.19 -33.3078 
410 317.446 -33.3604 
177 -161.068 -7.1125 
313 -158.944 -6.31621 
406 -161.068 -7.1125 
246 -208.832 -8.6429 
313 -208.832 -8.6429 
383 -210.078 -8.93089 
307 -260.316 -11.508 
362 -260.316 -11.508 
404 -259.059 -11.4553 
349 -304.281 -13.5864 
372 -304.281 -13.5864 
394 -305.537 -13.6391 
82 -161.009 -8.52454 
166 -208.753 -10.5256 
246 -260.267 -12.6847 
316 -304.241 -14.5278 
355 -328.114 -15.5283 
382 -341.934 -16.1076 
396 -329.37 -15.581 
409 -305.498 -14.5804 
418 -286.652 -13.7905 
434 -259.01 -12.632 
444 -231.369 -11.4735 
438 -208.753 -10.5256 
457 -210.009 -10.5783 
470 -188.65 -9.68304 
484 -161.009 -8.52454 
494 -130.854 -7.2607 
481 -130.904 -6.084 
455 -130.933 -5.37798 
363 -130.983 -4.20128 
194 -130.973 -4.43661 
76 -129.657 -5.79599 
36 -129.598 -7.20804 
82 -160.163 -28.6965 
166 -207.908 -30.6976 
246 -259.421 -32.8566 
316 -303.396 -34.6997 
355 -327.268 -35.7002 
382 -341.089 -36.2795 
396 -328.525 -35.7529 
409 -304.652 -34.7524 
418 -285.806 -33.9625 
434 -258.165 -32.804 
444 -230.523 -31.6454 
438 -207.907 -30.6976 
457 -209.164 -30.7502 
470 -187.805 -29.855 
484 -160.163 -28.6965 
494 -130.009 -27.4326 
481 -130.058 -26.2559 
455 -130.088 -25.5499 
363 -130.137 -24.3732 
194 -130.127 -24.6086 
76 -128.812 -25.9679 
36 -128.752 -27.38 
177 -160.104 -30.1085 
313 -157.921 -30.7243 
406 -160.104 -30.1085 
246 -207.829 -32.5803 
313 -207.829 -32.5803 
383 -209.095 -32.3976 
307 -259.372 -34.0333 
362 -259.372 -34.0333 
404 -258.115 -33.9807 
349 -303.357 -35.6411 
372 -303.357 -35.6411 
394 -304.613 -35.6937 
770.172 -108.727 -7.74754 
741.595 -112.112 25.687 
770.172 -112.112 25.687 
713.019 -112.112 25.687 
741.595 -115.497 59.1216 
713.019 -115.497 59.1216 
770.172 -115.497 59.1216 
684.442 -115.497 59.1216 
713.019 -118.882 92.5562 
741.595 -118.882 92.5562 
798.748 -112.112 25.687 
684.442 -112.112 25.687 
684.442 -118.882 92.5562 
770.172 -118.882 92.5562 
798.748 -115.497 59.1216 
655.866 -115.497 59.1216 
684.442 -122.267 125.991 
713.019 -122.267 125.991 
741.595 -122.267 125.991 
655.866 -112.112 25.687 
770.172 -122.267 125.991 
798.748 -118.882 92.5562 
713.019 -125.651 159.425 
741.595 -125.651 159.425 
770.172 -125.651 159.425 
798.748 -122.267 125.991 
741.595 -129.036 192.86 
627.289 -112.112 25.687 
770.172 -129.036 192.86 
798.748 -125.651 159.425 
798.748 -129.036 192.86 
746.532 -108.727 -7.74754 
755.224 -108.662 -8.39471 
741.595 -108.765 -7.37997 
770.172 -108.549 -9.50763 
771.778 -108.537 -9.62726 
741.26 -108.767 -7.35497 
776.521 -108.501 -9.98032 
774.972 -110.214 6.93286 
776.316 -108.727 -7.74754 
713.019 -108.98 -5.2523 
786.201 -110.214 6.93286 
710.741 -108.997 -5.08273 
775.359 -109.786 2.70451 
798.748 -110.214 6.93286 
660.849 -118.882 92.5562 
691.335 -109.143 -3.63785 
809.046 -112.112 25.687 
800.528 -110.214 6.93286 
655.866 -118.09 84.7321 
670.981 -120.476 108.306 
658.81 -118.561 89.3851 
684.442 -109.143 -3.63785 
682.356 -122.267 125.991 
809.046 -114.277 47.0729 
809.046 -110.892 13.6383 
809.046 -110.214 6.93286 
680.93 -109.143 -3.63785 
639.662 -115.497 59.1216 
646.554 -116.6 70.0156 
658.71 -118.545 89.2281 
672.749 -120.755 111.055 
683.252 -122.407 127.383 
684.442 -122.595 129.233 
809.046 -116.848 72.4718 
809.046 -115.19 56.0871 
668.49 -109.143 -3.63785 
634.399 -114.655 50.8032 
695.523 -124.339 146.46 
703.863 -125.651 159.425 
809.046 -117.662 80.5075 
809.046 -115.497 59.1216 
655.866 -109.143 -3.63785 
627.289 -113.517 39.566 
707.795 -126.27 165.537 
714.567 -127.336 176.066 
809.046 -118.882 92.5562 
652.353 -109.143 -3.63785 
713.019 -127.092 173.658 
716.503 -127.71 179.765 
725.235 -129.036 192.86 
809.046 -121.047 113.942 
622.243 -112.71 31.5907 
719.43 -128.277 185.358 
731.604 -129.476 197.207 
724.635 -128.995 192.45 
747.093 -129.69 199.321 
809.046 -122.267 125.991 
627.289 -109.143 -3.63785 
618.508 -112.112 25.687 
722.312 -128.834 190.865 
735.477 -129.53 197.736 
741.595 -129.614 198.571 
762.581 -129.69 199.321 
809.046 -124.432 147.377 
623.776 -109.143 -3.63785 
737.224 -129.554 197.974 
764.649 -129.69 199.321 
770.172 -129.69 199.321 
809.046 -127.122 173.951 
809.046 -124.553 148.582 
614.668 -111.498 19.6178 
793.226 -129.69 199.321 
809.046 -127.816 180.811 
809.046 -125.651 159.425 
610.087 -110.765 12.3783 
798.748 -129.69 199.321 
809.046 -129.036 192.86 
599.954 -109.143 -3.63785 
809.046 -129.69 199.321 
809.046 -129.048 192.979 
746.532 -105.217 -7.36453 
755.224 -105.152 -8.0117 
741.595 -105.255 -6.99696 
770.172 -105.039 -9.12462 
771.778 -105.027 -9.24425 
741.26 -105.257 -6.97195 
776.521 -104.991 -9.59731 
774.972 -106.704 7.31587 
776.316 -105.217 -7.36453 
713.019 -105.47 -4.86929 
786.201 -106.704 7.31587 
710.741 -105.487 -4.69972 
775.359 -106.276 3.08752 
798.748 -106.704 7.31587 
660.849 -115.372 92.9392 
691.335 -105.633 -3.25484 
809.046 -108.602 26.07 
800.528 -106.704 7.31587 
655.866 -114.58 85.1151 
670.981 -116.966 108.689 
658.81 -115.051 89.7681 
684.442 -105.633 -3.25484 
682.356 -118.756 126.374 
809.046 -110.767 47.4559 
809.046 -107.382 14.0213 
809.046 -106.704 7.31587 
680.93 -105.633 -3.25484 
639.662 -111.987 59.5046 
646.554 -113.09 70.3986 
658.71 -115.035 89.6111 
672.749 -117.244 111.438 
683.252 -118.897 127.766 
684.442 -119.085 129.616 
809.046 -113.338 72.8548 
809.046 -111.68 56.4701 
668.49 -105.633 -3.25484 
634.399 -111.145 51.1862 
695.523 -120.829 146.843 
703.863 -122.141 159.808 
809.046 -114.152 80.8906 
809.046 -111.987 59.5046 
655.866 -105.633 -3.25484 
627.289 -110.007 39.949 
707.795 -122.76 165.92 
714.567 -123.826 176.449 
809.046 -115.372 92.9393 
652.353 -105.633 -3.25484 
713.019 -123.582 174.041 
716.503 -124.2 180.148 
725.235 -125.526 193.243 
809.046 -117.537 114.325 
622.243 -109.2 31.9738 
719.43 -124.767 185.741 
731.604 -125.966 197.59 
724.635 -125.485 192.833 
747.093 -126.18 199.704 
809.046 -118.757 126.374 
627.289 -105.633 -3.25484 
618.508 -108.602 26.07 
722.312 -125.324 191.248 
735.477 -126.02 198.119 
741.595 -126.104 198.954 
762.581 -126.18 199.704 
809.046 -120.922 147.76 
623.776 -105.633 -3.25484 
737.224 -126.044 198.357 
764.649 -126.18 199.704 
770.172 -126.18 199.704 
809.046 -123.612 174.334 
809.046 -121.043 148.965 
614.668 -107.988 20.0008 
793.226 -126.18 199.704 
809.046 -124.306 181.194 
809.046 -122.141 159.808 
610.087 -107.255 12.7613 
798.748 -126.18 199.704 
809.046 -125.526 193.243 
599.954 -105.633 -3.25484 
809.046 -126.18 199.704 
809.046 -125.538 193.362 
770.172 -105.217 -7.36453 
741.595 -108.602 26.07 
770.172 -108.602 26.07 
713.019 -108.602 26.07 
741.595 -111.987 59.5046 
713.019 -111.987 59.5046 
770.172 -111.987 59.5046 
684.442 -111.987 59.5046 
713.019 -115.372 92.9393 
741.595 -115.372 92.9393 
798.748 -108.602 26.07 
684.442 -108.602 26.07 
684.442 -115.372 92.9393 
770.172 -115.372 92.9393 
798.748 -111.987 59.5046 
655.866 -111.987 59.5046 
684.442 -118.757 126.374 
713.019 -118.757 126.374 
741.595 -118.757 126.374 
655.866 -108.602 26.07 
770.172 -118.757 126.374 
798.748 -115.372 92.9393 
713.019 -122.141 159.808 
741.595 -122.141 159.808 
770.172 -122.141 159.808 
798.748 -118.757 126.374 
741.595 -125.526 193.243 
627.289 -108.602 26.07 
770.172 -125.526 193.243 
798.748 -122.141 159.808 
798.748 -125.526 193.243 
770.172 116.963 -7.33463 
741.595 120.348 26.0999 
770.172 120.348 26.0999 
713.019 120.348 26.0999 
741.595 123.732 59.5345 
713.019 123.732 59.5345 
770.172 123.732 59.5345 
684.442 123.732 59.5345 
713.019 127.117 92.9691 
741.595 127.117 92.9691 
798.748 120.348 26.0999 
684.442 120.348 26.0999 
684.442 127.117 92.9691 
770.172 127.117 92.9691 
798.748 123.732 59.5345 
655.866 123.732 59.5345 
684.442 130.502 126.404 
713.019 130.502 126.404 
741.595 130.502 126.404 
655.866 120.348 26.0999 
770.172 130.502 126.404 
798.748 127.117 92.9691 
713.019 133.887 159.838 
741.595 133.887 159.838 
770.172 133.887 159.838 
798.748 130.502 126.404 
741.595 137.272 193.273 
627.289 120.348 26.0999 
770.172 137.272 193.273 
798.748 133.887 159.838 
798.748 137.272 193.273 
746.532 116.963 -7.33463 
755.224 116.897 -7.98181 
741.595 117 -6.96707 
770.172 116.785 -9.09474 
771.778 116.773 -9.21436 
741.26 117.003 -6.94208 
776.521 116.737 -9.56743 
774.972 118.449 7.34576 
776.316 116.963 -7.33463 
713.019 117.215 -4.83942 
786.201 118.449 7.34576 
710.741 117.233 -4.66982 
775.359 118.021 3.1174 
798.748 118.449 7.34576 
660.849 127.117 92.9691 
691.335 117.379 -3.22496 
809.046 120.348 26.0999 
800.528 118.449 7.34576 
655.866 126.325 85.145 
670.981 128.712 108.719 
658.81 126.796 89.798 
684.442 117.379 -3.22496 
682.356 130.502 126.404 
809.046 122.513 47.4858 
809.046 119.128 14.0512 
809.046 118.449 7.34576 
680.93 117.379 -3.22496 
639.662 123.732 59.5345 
646.554 124.835 70.4285 
658.71 126.78 89.6409 
672.749 128.99 111.468 
683.252 130.643 127.796 
684.442 130.83 129.646 
809.046 125.084 72.8847 
809.046 123.425 56.5 
668.49 117.379 -3.22496 
634.399 122.89 51.216 
695.523 132.574 146.873 
703.863 133.887 159.838 
809.046 125.897 80.9204 
809.046 123.732 59.5345 
655.866 117.379 -3.22496 
627.289 121.753 39.9789 
707.795 134.506 165.95 
714.567 135.571 176.479 
809.046 127.117 92.9691 
652.353 117.379 -3.22496 
713.019 135.328 174.071 
716.503 135.946 180.178 
725.235 137.272 193.273 
809.046 129.282 114.355 
622.243 120.945 32.0036 
719.43 136.512 185.771 
731.604 137.712 197.62 
724.635 137.23 192.863 
747.093 137.926 199.734 
809.046 130.502 126.404 
627.289 117.379 -3.22496 
618.508 120.348 26.0999 
722.312 137.07 191.278 
735.477 137.765 198.149 
741.595 137.85 198.984 
762.581 137.926 199.734 
809.046 132.667 147.79 
623.776 117.379 -3.22496 
737.224 137.789 198.387 
764.649 137.926 199.734 
770.172 137.926 199.734 
809.046 135.357 174.364 
809.046 132.789 148.994 
614.668 119.733 20.0307 
793.226 137.926 199.734 
809.046 136.052 181.224 
809.046 133.887 159.838 
610.087 119 12.7912 
798.748 137.926 199.734 
809.046 137.272 193.273 
599.954 117.379 -3.22496 
809.046 137.926 199.734 
809.046 137.284 193.392 
746.532 120.473 -7.71767 
755.224 120.407 -8.36484 
741.595 120.51 -7.3501 
770.172 120.295 -9.47775 
771.778 120.283 -9.59737 
741.26 120.513 -7.32509 
776.521 120.247 -9.95044 
774.972 121.959 6.96275 
776.316 120.473 -7.71767 
713.019 120.725 -5.22243 
786.201 121.959 6.96275 
710.741 120.743 -5.05286 
775.359 121.531 2.73439 
798.748 121.959 6.96275 
660.849 130.627 92.5861 
691.335 120.889 -3.60797 
809.046 123.858 25.7168 
800.528 121.959 6.96275 
655.866 129.835 84.7619 
670.981 132.222 108.336 
658.81 130.306 89.415 
684.442 120.889 -3.60797 
682.356 134.012 126.021 
809.046 126.023 47.1028 
809.046 122.638 13.6682 
809.046 121.959 6.96275 
680.93 120.889 -3.60797 
639.662 127.242 59.1514 
646.554 128.345 70.0455 
658.71 130.29 89.2579 
672.749 132.5 111.085 
683.252 134.153 127.413 
684.442 134.34 129.263 
809.046 128.594 72.5017 
809.046 126.935 56.1169 
668.49 120.889 -3.60797 
634.399 126.4 50.833 
695.523 136.084 146.49 
703.863 137.397 159.455 
809.046 129.407 80.5374 
809.046 127.242 59.1515 
655.866 120.889 -3.60797 
627.289 125.263 39.5959 
707.795 138.016 165.567 
714.567 139.081 176.096 
809.046 130.627 92.5861 
652.353 120.889 -3.60797 
713.019 138.838 173.688 
716.503 139.456 179.795 
725.235 140.782 192.89 
809.046 132.792 113.972 
622.243 124.455 31.6206 
719.43 140.022 185.388 
731.604 141.222 197.237 
724.635 140.74 192.48 
747.093 141.436 199.351 
809.046 134.012 126.021 
627.289 120.889 -3.60797 
618.508 123.858 25.7168 
722.312 140.58 190.895 
735.477 141.275 197.766 
741.595 141.36 198.601 
762.581 141.436 199.351 
809.046 136.177 147.407 
623.776 120.889 -3.60797 
737.224 141.299 198.004 
764.649 141.436 199.351 
770.172 141.436 199.351 
809.046 138.867 173.981 
809.046 136.299 148.611 
614.668 123.243 19.6477 
793.226 141.436 199.351 
809.046 139.562 180.841 
809.046 137.397 159.455 
610.087 122.51 12.4082 
798.748 141.436 199.351 
809.046 140.782 192.89 
599.954 120.889 -3.60797 
809.046 141.436 199.351 
809.046 140.794 193.009 
770.172 120.473 -7.71764 
741.595 123.858 25.7169 
770.172 123.858 25.7169 
713.019 123.858 25.7169 
741.595 127.242 59.1515 
713.019 127.242 59.1515 
770.172 127.242 59.1515 
684.442 127.242 59.1515 
713.019 130.627 92.5861 
741.595 130.627 92.5861 
798.748 123.858 25.7169 
684.442 123.858 25.7169 
684.442 130.627 92.5861 
770.172 130.627 92.5861 
798.748 127.242 59.1515 
655.866 127.242 59.1515 
684.442 134.012 126.021 
713.019 134.012 126.021 
741.595 134.012 126.021 
655.866 123.858 25.7169 
770.172 134.012 126.021 
798.748 130.627 92.5861 
713.019 137.397 159.455 
741.595 137.397 159.455 
770.172 137.397 159.455 
798.748 134.012 126.021 
741.595 140.782 192.89 
627.289 123.858 25.7169 
770.172 140.782 192.89 
798.748 137.397 159.455 
798.748 140.782 192.89 
147.874 64.1817 -5.31534 
208.918 64.1817 -4.19228 
289.148 64.1817 -3.63075 
364.145 64.1817 -3.63075 
447.863 64.1817 -4.75381 
535.069 64.1817 -6.43839 
620.531 64.1817 -9.24599 
699.016 64.1817 -11.4921 
801.919 64.1817 -17.1073 
283.838 39.8093 -5.31534 
334.763 39.8093 -4.19228 
401.692 39.8093 -3.63075 
464.257 39.8093 -3.63075 
534.096 39.8093 -4.75381 
606.846 39.8093 -6.43839 
678.141 39.8093 -9.24599 
743.615 39.8093 -11.4921 
829.46 39.8093 -17.1073 
361.317 26.8107 -5.31534 
406.257 26.8107 -4.19228 
465.323 26.8107 -3.63075 
520.536 26.8107 -3.63075 
582.169 26.8107 -4.75381 
646.37 26.8107 -6.43839 
709.287 26.8107 -9.24599 
767.069 26.8107 -11.4921 
842.826 26.8107 -17.1073 
368.601 7.31277 -4.19231 
413.542 7.31277 -3.06924 
472.607 7.31277 -2.50772 
527.82 7.31277 -2.50772 
589.454 7.31277 -3.63077 
653.655 7.31277 -5.31534 
716.572 7.31277 -8.12292 
774.353 7.31277 -10.369 
850.111 7.31277 -15.9843 
147.874 -53.618 -5.31534 
208.918 -53.618 -4.19228 
289.148 -53.618 -3.63075 
364.145 -53.618 -3.63075 
447.863 -53.618 -4.75381 
535.069 -53.618 -6.43839 
620.531 -53.618 -9.24599 
699.016 -53.618 -11.4921 
801.919 -53.618 -17.1073 
283.838 -29.2455 -5.31534 
334.763 -29.2455 -4.19228 
401.692 -29.2455 -3.63075 
464.257 -29.2455 -3.63075 
534.096 -29.2455 -4.75381 
606.846 -29.2455 -6.43839 
678.141 -29.2455 -9.24599 
743.615 -29.2455 -11.4921 
829.46 -29.2455 -17.1073 
361.317 -16.247 -5.31534 
406.257 -16.247 -4.19228 
465.323 -16.247 -3.63075 
520.536 -16.247 -3.63075 
582.169 -16.247 -4.75381 
646.37 -16.247 -6.43839 
709.287 -16.247 -9.24599 
767.069 -16.247 -11.4921 
842.826 -16.247 -17.1073 
368.601 3.25085 -4.19231 
413.542 3.25085 -3.06924 
472.607 3.25085 -2.50772 
527.82 3.25085 -2.50772 
589.454 3.25085 -3.63077 
653.655 3.25085 -5.31534 
716.572 3.25085 -8.12292 
774.353 3.25085 -10.369 
850.111 3.25085 -15.9843 
22.0013 64.1314 -7.5614 
62.0684 72.3665 -5.31534 
108.813 75.1116 -4.19228 
150.55 79.2291 -3.63075 
210.097 80.43 -3.63075 
311.713 80.43 -4.75381 
417.563 80.43 -6.43839 
521.296 80.43 -9.24599 
616.561 80.43 -11.4921 
741.464 80.43 -17.1073 
876.765 69.2594 -22.161 
143.872 53.1512 -7.5614 
898.468 63.5726 -22.161 
234.023 39.426 -7.5614 
914.695 38.9973 -22.161 
319.165 26.8107 -6.43839 
914.695 25.5924 -22.161 
327.512 7.31277 -6.43839 
917.213 6.70374 -21.038 
15.3235 -51.1604 -7.5614 
40.3654 -56.6505 -5.31534 
75.4241 -62.1406 -4.19228 
128.847 -67.6307 -3.63075 
210.097 -69.8663 -3.63075 
311.713 -69.8663 -4.75381 
417.563 -69.8663 -6.43839 
521.296 -69.8663 -9.24599 
616.561 -69.8663 -11.4921 
741.464 -69.8663 -17.1073 
875.93 -59.1017 -22.161 
95.4576 -45.6703 -7.5614 
898.468 -54.2271 -22.161 
234.023 -26.455 -7.5614 
914.695 -29.6516 -22.161 
319.165 -16.2469 -6.43839 
914.695 -16.2468 -22.161 
327.512 3.25085 -6.43839 
917.213 2.64177 -21.038 
22.0013 64.1314 -52.4834 
62.0684 72.3665 -53.446 
108.813 75.1116 -52.323 
150.55 79.2291 -51.7614 
210.097 80.43 -51.7614 
311.713 80.43 -52.8845 
417.563 80.43 -54.5691 
521.296 80.43 -57.3767 
617.164 80.43 -57.5371 
771.589 80.43 -51.6411 
875.93 69.2595 -39.5683 
143.872 53.1512 -55.6921 
897.633 63.5726 -39.5683 
234.023 39.426 -55.6921 
913.86 38.9973 -39.5683 
319.165 26.8107 -54.5691 
913.86 25.5924 -39.5683 
327.512 7.31277 -54.5691 
916.379 6.70377 -38.4453 
15.3235 -51.1604 -52.4834 
40.3654 -56.6505 -53.446 
75.4241 -62.1406 -52.323 
128.847 -67.6307 -51.7614 
210.097 -69.8663 -51.7614 
311.713 -69.8663 -52.8845 
417.563 -69.8663 -54.5691 
521.296 -69.8663 -57.3767 
617.164 -69.8662 -57.5371 
771.589 -69.8662 -51.6411 
875.095 -59.1017 -39.5683 
95.4576 -45.6703 -55.6921 
897.633 -54.2271 -39.5683 
234.023 -26.455 -55.6921 
913.86 -29.6515 -39.5683 
319.165 -16.2469 -54.5691 
913.86 -16.2467 -39.5683 
327.512 3.25085 -54.5691 
916.379 2.64182 -38.4453 
147.874 64.1817 -56.8152 
208.918 64.1817 -57.9382 
289.148 64.1817 -58.4997 
364.145 64.1817 -58.4997 
447.863 64.1817 -57.3767 
535.069 64.1817 -55.6921 
620.531 64.1817 -52.8845 
699.016 64.1817 -50.6384 
801.919 64.1817 -45.0231 
283.838 39.8093 -56.8152 
334.763 39.8093 -57.9382 
401.692 39.8093 -58.4997 
464.257 39.8093 -58.4997 
534.096 39.8093 -57.3767 
606.846 39.8093 -55.6921 
678.141 39.8093 -52.8845 
743.615 39.8093 -50.6384 
829.46 39.8093 -45.0231 
361.317 26.8107 -56.8152 
406.257 26.8107 -57.9382 
465.323 26.8107 -58.4997 
520.536 26.8107 -58.4997 
582.169 26.8107 -57.3767 
646.37 26.8107 -55.6921 
709.287 26.8107 -52.8845 
767.069 26.8107 -50.6384 
842.826 26.8107 -45.0231 
368.601 7.31277 -57.9382 
413.542 7.31277 -59.0612 
472.607 7.31277 -59.6228 
527.82 7.31277 -59.6228 
589.454 7.31277 -58.4997 
653.655 7.31277 -56.8152 
716.572 7.31277 -54.0076 
774.353 7.31277 -51.7614 
850.111 7.31277 -46.1462 
147.874 -53.618 -56.8152 
208.918 -53.618 -57.9382 
289.148 -53.618 -58.4997 
364.145 -53.618 -58.4997 
447.863 -53.618 -57.3767 
535.069 -53.618 -55.6921 
620.531 -53.618 -52.8845 
699.016 -53.618 -50.6384 
801.919 -53.618 -45.0231 
283.838 -29.2455 -56.8152 
334.763 -29.2455 -57.9382 
401.692 -29.2455 -58.4997 
464.257 -29.2455 -58.4997 
534.096 -29.2455 -57.3767 
606.846 -29.2455 -55.6921 
678.141 -29.2455 -52.8845 
743.615 -29.2455 -50.6384 
829.46 -29.2455 -45.0231 
361.317 -16.247 -56.8152 
406.257 -16.247 -57.9382 
465.323 -16.247 -58.4997 
520.536 -16.247 -58.4997 
582.169 -16.247 -57.3767 
646.37 -16.247 -55.6921 
709.287 -16.247 -52.8845 
767.069 -16.247 -50.6384 
842.826 -16.247 -45.0231 
368.601 3.25085 -57.9382 
413.542 3.25085 -59.0612 
472.607 3.25085 -59.6228 
527.82 3.25085 -59.6228 
589.454 3.25085 -58.4997 
653.655 3.25085 -56.8152 
716.572 3.25085 -54.0076 
774.353 3.25085 -51.7614 
850.111 3.25085 -46.1462 
188.16 -157.466 -49.8747 
65.4552 -157.466 -38.1399 
64.6204 -157.466 -50.2938 
64.6204 -157.466 -28.7528 
64.6204 -157.466 -38.0617 
188.16 -157.466 -68.1803 
188.16 -157.466 -28.753 
64.6204 -157.466 -68.1801 
290.832 -156.207 -68.1803 
64.6204 -153.909 -10.4473 
290.832 -157.392 -49.8748 
211.95 -152.131 -96.3949 
287.076 -143.759 -94.7185 
188.16 -153.91 -10.4475 
290.832 -156.207 -31.5692 
64.6204 -152.131 -90.71 
398.93 -149.74 -103.101 
402.686 -168.822 -70.128 
67.4352 -134.928 -6.80338 
402.686 -175.633 -49.8752 
211.95 -123.68 -102.027 
287.076 -122.421 -101.759 
398.93 -122.165 -112.114 
67.3177 -123.698 -4.64748 
64.6204 -135.94 -6.99765 
290.832 -143.759 -17.4881 
402.686 -168.822 -29.6223 
68.2724 -124.717 -96.4997 
522.47 -122.165 -112.114 
522.47 -149.74 -103.101 
526.226 -168.822 -70.128 
64.6204 -122.239 -4.36739 
64.6204 -123.274 -4.56616 
188.16 -122.239 -4.36752 
526.226 -175.633 -49.8752 
64.6204 -130.785 -94.9358 
68.3767 -123.68 -95.1376 
287.076 -91.5983 -105.983 
398.93 -91.5593 -112.114 
522.47 -91.5594 -112.114 
290.832 -122.421 -6.22319 
402.686 -149.74 -13.3808 
526.226 -168.822 -29.6223 
211.95 -91.6725 -102.027 
698.598 -91.5595 -101.068 
698.598 -122.165 -101.068 
698.598 -149.74 -92.0542 
674.808 -168.822 -70.128 
67.2961 -111.811 -4.36742 
188.16 -91.6334 -4.36752 
674.808 -175.633 -49.8752 
67.0329 -123.055 -96.3424 
287.076 -43.5869 -105.983 
398.93 -63.9845 -103.101 
522.47 -63.9846 -103.101 
698.598 -63.9846 -92.0542 
64.6204 -91.6332 -4.36739 
64.6204 -114.819 -4.36742 
290.832 -91.5593 -4.36761 
402.686 -122.165 -4.36746 
526.226 -149.74 -13.3808 
674.808 -168.822 -29.6223 
67.2609 -116.469 -96.3424 
211.95 -43.661 -102.027 
788.331 -69.3327 -81.8806 
788.331 -93.5157 -89.7853 
788.331 -120.357 -89.7853 
788.331 -144.54 -81.8806 
788.331 -161.275 -67.6369 
188.16 -41.8829 -3.40692 
67.2494 -42.9414 -3.42725 
788.331 -167.248 -49.8752 
67.856 -91.6724 -96.3424 
290.832 -45.3652 -70.9965 
402.686 -44.9022 -70.128 
526.226 -44.9023 -70.128 
674.808 -44.9024 -70.128 
788.331 -52.5975 -67.6369 
290.832 -41.8088 -3.40698 
67.3179 -42.9412 -3.42722 
402.686 -91.5593 -4.36746 
64.6204 -42.9474 -3.42735 
526.226 -122.165 -4.36746 
674.808 -149.74 -13.3808 
788.331 -161.275 -32.1134 
67.8052 -92.7097 -96.3424 
188.16 -45.4393 -70.9965 
67.9188 -90.3905 -96.3424 
807.53 -55.5697 -66.6653 
807.53 -71.3895 -80.13 
807.53 -94.2498 -87.6024 
807.53 -119.623 -87.6024 
807.53 -142.483 -80.13 
807.53 -158.303 -66.6653 
188.16 -45.4393 -30.1611 
64.6204 -41.8827 -3.40677 
807.53 -163.949 -49.8752 
290.832 -47.1434 -51.2829 
64.9335 -43.6608 -95.5567 
402.686 -38.0918 -49.8752 
68.1381 -85.9151 -96.3424 
526.226 -38.0919 -49.8752 
674.808 -38.092 -49.8752 
788.331 -46.6248 -49.8752 
807.53 -49.9237 -49.8752 
290.832 -45.3652 -30.1612 
64.6204 -45.4391 -30.1609 
402.686 -63.9846 -13.3808 
64.2031 -45.007 -26.8242 
526.226 -91.5594 -4.36746 
674.808 -122.165 -4.36746 
788.331 -144.54 -17.8697 
807.53 -158.303 -33.085 
188.16 -47.2175 -51.2829 
64.6204 -45.4391 -70.9963 
69.2114 -60.603 -96.1854 
64.6204 -47.2173 -51.2827 
64.6204 -45.0331 -27.1065 
402.686 -44.9022 -29.6223 
526.226 -44.9023 -29.6223 
674.808 -44.9024 -29.6223 
788.331 -52.5975 -32.1134 
807.53 -55.5697 -33.085 
526.226 -63.9846 -13.3808 
674.808 -91.5596 -4.36746 
788.331 -120.357 -9.96498 
807.53 -142.483 -19.6203 
65.0378 -47.1887 -51.132 
64.6204 -47.2074 -51.3925 
64.9335 -91.6722 -95.7663 
674.808 -63.9848 -13.3808 
788.331 -69.3327 -17.8697 
807.53 -71.3895 -19.6203 
788.331 -93.5157 -9.96498 
807.53 -119.623 -12.148 
807.53 -94.2498 -12.148 
64.9335 -123.68 -95.7663 
65.8725 -158.503 -62.8669 
53.2454 -158.503 -60.3823 
65.0378 -158.503 -43.1691 
57.7955 -158.503 -71.2855 
45.2 -158.503 -40.6765 
65.0378 -158.503 -75.859 
31.5131 -158.503 -71.6062 
23.8881 -158.503 -60.6671 
61.6687 -153.169 -91.1672 
38.797 -153.169 -85.7141 
67.6769 -150.798 -11.319 
11.7816 -158.503 -41.5185 
69.3048 -153.169 -92.9312 
9.1109 -123.831 -90.8417 
8.27618 -126.497 -72.3175 
33.3417 -150.798 -10.1823 
-11.7572 -127.386 -57.8375 
62.5344 -124.717 -95.2849 
40.5391 -124.717 -89.3589 
9.1109 -109.614 -90.8417 
-6.38135 -150.798 -11.6787 
-35.9644 -126.497 -38.5589 
67.3249 -127.681 -4.74127 
30.8568 -127.681 -3.77708 
69.1071 -124.717 -96.2901 
40.5959 -92.7097 -89.1006 
9.94562 -78.5144 -90.8417 
-10.1907 -127.681 -5.40883 
-83.544 -120.277 -12.5746 
62.6472 -92.7097 -95.048 
30.5276 -92.6706 -2.98459 
40.5076 -44.6983 -88.5385 
9.1109 -44.7489 -90.8417 
-10.683 -92.6706 -4.64072 
67.2615 -92.6706 -3.91644 
-93.8545 -109.614 -4.19264 
62.6878 -44.6983 -94.4679 
30.3283 -42.9201 -2.22723 
67.3062 -42.9201 -3.18623 
69.0366 -92.7097 -96.6515 
32.3841 -46.4765 -73.4286 
8.27618 -46.4764 -71.2489 
-11.0422 -42.9201 -3.86615 
-94.7587 -86.5115 -4.1926 
58.2283 -46.4765 -73.0356 
45.4164 -46.4765 -41.706 
23.9764 -48.2547 -61.3284 
69.2474 -44.6983 -96.1894 
-16.7656 -48.2545 -58.2567 
12.2171 -46.4765 -42.5906 
64.6204 -46.4764 -43.5882 
-95.5347 -43.8604 -4.1926 
53.2048 -48.2547 -60.9624 
65.0378 -46.4764 -76.2781 
-36.7991 -46.4764 -39.8163 
65.4552 -48.2545 -63.2859 
188.608 165.815 -50.0219 
65.9031 165.814 -38.2871 
65.0684 165.814 -50.4411 
65.0684 165.814 -28.9 
65.0684 165.814 -38.2089 
188.608 165.815 -68.3275 
188.608 165.815 -28.9002 
65.0684 165.814 -68.3273 
291.28 164.571 -68.3276 
65.0684 162.302 -10.5945 
291.28 165.741 -50.022 
212.398 160.546 -96.5421 
287.524 152.278 -94.8657 
188.608 162.302 -10.5947 
291.28 164.571 -31.7165 
65.0684 160.546 -90.8572 
399.378 158.184 -103.248 
403.134 177.03 -70.2752 
67.8832 143.556 -6.95059 
403.134 183.755 -50.0224 
212.398 132.448 -102.175 
287.524 131.205 -101.906 
399.378 130.952 -112.261 
67.7656 132.466 -4.79469 
65.0684 144.556 -7.14488 
291.28 152.278 -17.6353 
403.134 177.03 -29.7695 
68.7203 133.473 -96.6469 
522.918 130.952 -112.261 
522.918 158.184 -103.248 
526.674 177.03 -70.2752 
65.0684 131.025 -4.51462 
65.0684 132.048 -4.71339 
188.608 131.025 -4.51474 
526.674 183.756 -50.0224 
65.0684 139.465 -95.083 
68.8247 132.448 -95.2848 
287.524 100.765 -106.131 
399.378 100.727 -112.261 
522.918 100.727 -112.261 
291.28 131.205 -6.37042 
403.134 158.184 -13.528 
526.674 177.03 -29.7695 
212.398 100.838 -102.175 
699.046 100.727 -101.215 
699.046 130.952 -101.215 
699.046 158.185 -92.2014 
675.256 177.03 -70.2752 
67.7441 120.726 -4.51463 
188.608 100.8 -4.51474 
675.256 183.756 -50.0224 
67.4809 131.831 -96.4897 
287.524 53.3501 -106.131 
399.378 73.4943 -103.248 
522.918 73.4944 -103.248 
699.046 73.4945 -92.2014 
65.0684 100.8 -4.51462 
65.0684 123.698 -4.51463 
291.28 100.727 -4.51483 
403.134 130.952 -4.51468 
526.674 158.185 -13.528 
675.256 177.03 -29.7695 
67.7088 125.327 -96.4897 
212.398 53.4233 -102.175 
788.779 78.7761 -82.0279 
788.779 102.659 -89.9325 
788.779 129.166 -89.9325 
788.779 153.049 -82.0279 
788.779 169.576 -67.7841 
188.608 51.6673 -3.55414 
67.6974 52.7126 -3.57446 
788.779 175.475 -50.0224 
68.304 100.838 -96.4897 
291.28 55.1063 -71.1438 
403.134 54.6491 -70.2752 
526.674 54.6492 -70.2752 
675.256 54.6493 -70.2752 
788.779 62.2488 -67.7841 
291.28 51.5941 -3.5542 
67.7658 52.7124 -3.57445 
403.134 100.727 -4.51468 
65.0684 52.7186 -3.57457 
526.674 130.952 -4.51468 
675.256 158.185 -13.528 
788.779 169.576 -32.2607 
68.2531 101.863 -96.4897 
188.608 55.1795 -71.1437 
68.3668 99.5723 -96.4897 
807.978 65.1841 -66.8126 
807.978 80.8073 -80.2773 
807.978 103.384 -87.7496 
807.978 128.442 -87.7496 
807.978 151.018 -80.2773 
807.978 166.641 -66.8126 
188.608 55.1795 -30.3083 
65.0684 51.6671 -3.55399 
807.978 172.217 -50.0224 
291.28 56.8624 -51.4301 
65.3814 53.4231 -95.704 
403.134 47.9233 -50.0224 
68.5861 95.1525 -96.4897 
526.674 47.9234 -50.0224 
675.256 47.9235 -50.0224 
788.779 56.3503 -50.0224 
807.978 59.6082 -50.0224 
291.28 55.1063 -30.3084 
65.0684 55.1793 -30.3082 
403.134 73.4944 -13.528 
64.651 54.7526 -26.9714 
526.674 100.727 -4.51468 
675.256 130.952 -4.51468 
788.779 153.049 -18.0169 
807.978 166.641 -33.2322 
188.608 56.9356 -51.4301 
65.0684 55.1793 -71.1435 
69.6594 70.1548 -96.3326 
65.0684 56.9354 -51.4299 
65.0684 54.7783 -27.2537 
403.134 54.6491 -29.7695 
526.674 54.6492 -29.7695 
675.256 54.6493 -29.7695 
788.779 62.2488 -32.2607 
807.978 65.1841 -33.2322 
526.674 73.4945 -13.528 
675.256 100.727 -4.51468 
788.779 129.166 -10.1122 
807.978 151.018 -19.7675 
65.4857 56.9071 -51.2792 
65.0684 56.9256 -51.5397 
65.3814 100.838 -95.9135 
675.256 73.4946 -13.528 
788.779 78.7761 -18.0169 
807.978 80.8073 -19.7675 
788.779 102.659 -10.1122 
807.978 128.442 -12.2952 
807.978 103.384 -12.2952 
65.3814 132.448 -95.9135 
66.3205 166.839 -63.0141 
53.6934 166.839 -58.428 
65.4857 166.839 -43.3163 
58.2434 166.839 -70.1733 
45.6479 166.839 -40.8237 
65.4857 166.839 -76.0062 
31.961 166.839 -70.4751 
24.336 166.839 -58.6558 
62.1166 161.571 -91.3144 
39.245 161.571 -83.7531 
68.1249 159.229 -11.4663 
12.2295 166.839 -41.6658 
69.7527 161.571 -93.0784 
9.55887 132.598 -88.5791 
8.72415 135.23 -71.1445 
33.7896 159.229 -10.3295 
-11.3093 136.108 -56.3922 
62.9824 133.473 -95.4321 
40.9871 133.473 -87.1835 
9.55887 118.557 -88.5791 
-5.93338 159.229 -11.826 
-35.5164 135.23 -38.7061 
67.7729 136.4 -4.88849 
31.3048 136.4 -3.92432 
69.5551 133.473 -96.4374 
41.0439 101.863 -86.9404 
10.3936 87.8438 -88.5791 
-9.74271 136.4 -5.55606 
-83.096 129.088 -12.7218 
63.0951 101.863 -95.1952 
30.9756 101.824 -3.13181 
40.9555 54.4477 -86.4114 
9.55887 54.4977 -88.5791 
-10.2351 101.824 -4.78793 
67.7094 101.824 -4.06367 
-93.4065 118.557 -4.33986 
63.1358 54.4477 -94.6151 
30.7763 52.6916 -2.37445 
67.7541 52.6916 -3.33347 
69.4845 101.863 -96.7987 
32.832 56.2038 -72.1903 
8.72415 56.2037 -70.1388 
-10.5942 52.6916 -4.01337 
-94.3107 95.7415 -4.33983 
58.6762 56.2038 -71.8204 
45.8644 56.2038 -41.8532 
24.4244 57.9599 -59.1848 
69.6954 54.4477 -96.3366 
-16.3177 57.9598 -56.7276 
12.665 56.2038 -42.7378 
65.0684 56.2037 -43.7355 
-95.0868 53.6202 -4.33983 
53.6527 57.9599 -58.8921 
65.4857 56.2037 -76.4253 
-36.3512 56.2037 -39.9636 
65.9031 57.9598 -63.4332 
