# .PCD v.7 - Point Cloud Data file format
VERSION .7
FIELDS x y z
SIZE 4 4 4
TYPE F F F
COUNT 1 1 1
WIDTH 1816
HEIGHT 1
VIEWPOINT 0 0 0 1 0 0 0
POINTS 1816
DATA ascii
222.341 -22.4097 103.501 
271.642 -22.4097 103.501 
271.642 -22.4097 104.886 
271.642 -22.4097 106.271 
271.642 -22.4097 107.656 
271.642 -22.4097 109.041 
271.642 -22.4097 110.427 
271.642 -22.4097 111.812 
271.642 -22.4097 113.197 
271.642 -22.4097 114.582 
271.642 -22.4097 115.967 
271.642 -22.4097 117.353 
271.642 -22.4097 118.738 
222.341 -22.4097 118.738 
173.039 -22.4097 118.738 
123.738 -22.4097 118.738 
74.4364 -22.4097 118.738 
25.1351 -22.4097 118.738 
-24.1663 -22.4097 118.738 
-73.4677 -22.4097 118.738 
-122.769 -22.4097 118.738 
-172.071 -22.4097 118.738 
-221.372 -22.4097 118.738 
-270.673 -22.4097 118.738 
-272.805 -49.0764 124.28 
-272.805 -49.0764 122.202 
-272.805 -49.0764 120.124 
-272.805 -49.0764 118.046 
-272.805 -49.0764 115.968 
-272.805 -49.0764 113.89 
-272.805 -49.0764 111.812 
-272.805 -49.0764 109.734 
-272.805 -49.0764 107.656 
-272.805 -49.0764 105.579 
-272.805 -49.0764 103.501 
-223.187 -49.0764 103.501 
-173.568 -49.0764 103.501 
-123.949 -49.0764 103.501 
-74.3301 -49.0764 103.501 
-24.7113 -49.0764 103.501 
24.9075 -49.0764 103.501 
74.5263 -49.0764 103.501 
124.145 -49.0764 103.501 
173.764 -49.0764 103.501 
223.383 -49.0764 103.501 
273.001 -49.0764 103.501 
273.001 -49.0764 105.579 
273.001 -49.0764 107.656 
273.001 -49.0764 109.734 
273.001 -49.0764 111.812 
273.001 -49.0764 113.89 
273.001 -49.0764 115.968 
273.001 -49.0764 118.046 
273.001 -49.0764 120.124 
273.001 -49.0764 122.202 
273.001 -49.0764 124.28 
273.001 -49.0764 126.358 
223.383 -49.0764 126.358 
173.764 -49.0764 126.358 
124.145 -49.0764 126.358 
74.5263 -49.0764 126.358 
24.9075 -49.0764 126.358 
-24.7113 -49.0764 126.358 
-74.3301 -49.0764 126.358 
-123.949 -49.0764 126.358 
-173.568 -49.0764 126.358 
-223.187 -49.0764 126.358 
-272.805 -49.0764 126.358 
-273.27 -69.0764 126.285 
-273.27 -69.0764 124.007 
-273.27 -69.0764 121.728 
-273.27 -69.0764 119.45 
-273.27 -69.0764 117.171 
-273.27 -69.0764 114.893 
-273.27 -69.0764 112.614 
-273.27 -69.0764 110.336 
-273.27 -69.0764 108.058 
-273.27 -69.0764 105.779 
-273.27 -69.0764 103.501 
-223.588 -69.0764 103.501 
-173.905 -69.0764 103.501 
-124.222 -69.0764 103.501 
-74.5394 -69.0764 103.501 
-24.8567 -69.0764 103.501 
24.826 -69.0764 103.501 
74.5087 -69.0764 103.501 
124.191 -69.0764 103.501 
173.874 -69.0764 103.501 
223.557 -69.0764 103.501 
273.239 -69.0764 103.501 
273.239 -69.0764 105.779 
273.239 -69.0764 108.058 
273.239 -69.0764 110.336 
273.239 -69.0764 112.614 
273.239 -69.0764 114.893 
273.239 -69.0764 117.171 
273.239 -69.0764 119.45 
273.239 -69.0764 121.728 
273.239 -69.0764 124.007 
273.239 -69.0764 126.285 
273.239 -69.0764 128.564 
223.557 -69.0764 128.564 
173.874 -69.0764 128.564 
124.191 -69.0764 128.564 
74.5087 -69.0764 128.564 
24.826 -69.0764 128.564 
-24.8567 -69.0764 128.564 
-74.5394 -69.0764 128.564 
-124.222 -69.0764 128.564 
-173.905 -69.0764 128.564 
-223.587 -69.0764 128.564 
-273.27 -69.0764 128.564 
-271.884 -89.0764 127.144 
-271.884 -89.0764 124.78 
-271.884 -89.0764 122.415 
-271.884 -89.0764 120.051 
-271.884 -89.0764 117.687 
-271.884 -89.0764 115.322 
-271.884 -89.0764 112.958 
-271.884 -89.0764 110.594 
-271.884 -89.0764 108.229 
-271.884 -89.0764 105.865 
-271.884 -89.0764 103.501 
-222.42 -89.0764 103.501 
-172.956 -89.0764 103.501 
-123.492 -89.0764 103.501 
-74.0287 -89.0764 103.501 
-24.565 -89.0764 103.501 
24.8987 -89.0764 103.501 
74.3624 -89.0764 103.501 
123.826 -89.0764 103.501 
173.29 -89.0764 103.501 
222.754 -89.0764 103.501 
272.217 -89.0764 103.501 
272.217 -89.0764 105.865 
272.217 -89.0764 108.229 
272.217 -89.0764 110.594 
272.217 -89.0764 112.958 
272.217 -89.0764 115.322 
272.217 -89.0764 117.687 
272.217 -89.0764 120.051 
272.217 -89.0764 122.415 
272.217 -89.0764 124.78 
272.217 -89.0764 127.144 
272.217 -89.0764 129.508 
222.754 -89.0764 129.508 
173.29 -89.0764 129.508 
123.826 -89.0764 129.508 
74.3624 -89.0764 129.508 
24.8987 -89.0764 129.508 
-24.565 -89.0764 129.508 
-74.0287 -89.0764 129.508 
-123.492 -89.0764 129.508 
-172.956 -89.0764 129.508 
-222.42 -89.0764 129.508 
-271.884 -89.0764 129.508 
-263.263 -109.076 125.728 
-263.263 -109.076 123.505 
-263.263 -109.076 121.282 
-263.263 -109.076 119.059 
-263.263 -109.076 116.837 
-263.263 -109.076 114.614 
-263.263 -109.076 112.391 
-263.263 -109.076 110.169 
-263.263 -109.076 107.946 
-263.263 -109.076 105.723 
-263.263 -109.076 103.501 
-215.081 -109.076 103.501 
-166.9 -109.076 103.501 
-118.718 -109.076 103.501 
-70.5359 -109.076 103.501 
-22.3541 -109.076 103.501 
25.8277 -109.076 103.501 
74.0095 -109.076 103.501 
122.191 -109.076 103.501 
170.373 -109.076 103.501 
218.555 -109.076 103.501 
266.737 -109.076 103.501 
266.737 -109.076 105.723 
266.737 -109.076 107.946 
266.737 -109.076 110.169 
266.737 -109.076 112.391 
266.737 -109.076 114.614 
266.737 -109.076 116.837 
266.737 -109.076 119.059 
266.737 -109.076 121.282 
266.737 -109.076 123.505 
266.737 -109.076 125.728 
266.737 -109.076 127.95 
218.555 -109.076 127.95 
170.373 -109.076 127.95 
122.191 -109.076 127.95 
74.0095 -109.076 127.95 
25.8277 -109.076 127.95 
-22.3541 -109.076 127.95 
-70.5359 -109.076 127.95 
-118.718 -109.076 127.95 
-166.9 -109.076 127.95 
-215.081 -109.076 127.95 
-263.263 -109.076 127.95 
-254.467 -112.338 124.962 
-254.467 -112.338 122.816 
-254.467 -112.338 120.67 
-254.467 -112.338 118.524 
-254.467 -112.338 116.377 
-254.467 -112.338 114.231 
-254.467 -112.338 112.085 
-254.467 -112.338 109.939 
-254.467 -112.338 107.793 
-254.467 -112.338 105.647 
-254.467 -112.338 103.501 
-207.581 -112.338 103.501 
-160.695 -112.338 103.501 
-113.809 -112.338 103.501 
-66.9229 -112.338 103.501 
-20.0368 -112.338 103.501 
26.8493 -112.338 103.501 
73.7354 -112.338 103.501 
120.621 -112.338 103.501 
167.508 -112.338 103.501 
214.394 -112.338 103.501 
261.28 -112.338 103.501 
261.28 -112.338 105.647 
261.28 -112.338 107.793 
261.28 -112.338 109.939 
261.28 -112.338 112.085 
261.28 -112.338 114.231 
261.28 -112.338 116.377 
261.28 -112.338 118.524 
261.28 -112.338 120.67 
261.28 -112.338 122.816 
261.28 -112.338 124.962 
261.28 -112.338 127.108 
214.394 -112.338 127.108 
167.508 -112.338 127.108 
120.621 -112.338 127.108 
73.7354 -112.338 127.108 
26.8493 -112.338 127.108 
-20.0368 -112.338 127.108 
-66.9229 -112.338 127.108 
-113.809 -112.338 127.108 
-160.695 -112.338 127.108 
-207.581 -112.338 127.108 
-254.467 -112.338 127.108 
-237.066 -115.599 123.793 
-237.066 -115.599 121.764 
-237.066 -115.599 119.735 
-237.066 -115.599 117.705 
-237.066 -115.599 115.676 
-237.066 -115.599 113.647 
-237.066 -115.599 111.618 
-237.066 -115.599 109.588 
-237.066 -115.599 107.559 
-237.066 -115.599 105.53 
-237.066 -115.599 103.501 
-192.867 -115.599 103.501 
-148.668 -115.599 103.501 
-104.468 -115.599 103.501 
-60.2689 -115.599 103.501 
-16.0696 -115.599 103.501 
28.1297 -115.599 103.501 
72.3291 -115.599 103.501 
116.528 -115.599 103.501 
160.728 -115.599 103.501 
204.927 -115.599 103.501 
249.126 -115.599 103.501 
249.126 -115.599 105.53 
249.126 -115.599 107.559 
249.126 -115.599 109.588 
249.126 -115.599 111.618 
249.126 -115.599 113.647 
249.126 -115.599 115.676 
249.126 -115.599 117.705 
249.126 -115.599 119.735 
249.126 -115.599 121.764 
249.126 -115.599 123.793 
249.126 -115.599 125.822 
204.927 -115.599 125.822 
160.728 -115.599 125.822 
116.528 -115.599 125.822 
72.3291 -115.599 125.822 
28.1298 -115.599 125.822 
-16.0696 -115.599 125.822 
-60.2689 -115.599 125.822 
-104.468 -115.599 125.822 
-148.668 -115.599 125.822 
-192.867 -115.599 125.822 
-237.066 -115.599 125.822 
-209.324 -118.86 121.626 
-209.324 -118.86 119.814 
-209.324 -118.86 118.001 
-209.324 -118.86 116.189 
-209.324 -118.86 114.376 
-209.324 -118.86 112.563 
-209.324 -118.86 110.751 
-209.324 -118.86 108.938 
-209.324 -118.86 107.126 
-209.324 -118.86 105.313 
-209.324 -118.86 103.501 
-169.557 -118.86 103.501 
-129.789 -118.86 103.501 
-90.0206 -118.86 103.501 
-50.2526 -118.86 103.501 
-10.4846 -118.86 103.501 
29.2834 -118.86 103.501 
69.0514 -118.86 103.501 
108.819 -118.86 103.501 
148.587 -118.86 103.501 
188.355 -118.86 103.501 
228.123 -118.86 103.501 
228.123 -118.86 105.313 
228.123 -118.86 107.126 
228.123 -118.86 108.938 
228.123 -118.86 110.751 
228.123 -118.86 112.563 
228.123 -118.86 114.376 
228.123 -118.86 116.189 
228.123 -118.86 118.001 
228.123 -118.86 119.814 
228.123 -118.86 121.626 
228.123 -118.86 123.439 
188.355 -118.86 123.439 
148.587 -118.86 123.439 
108.819 -118.86 123.439 
69.0514 -118.86 123.439 
29.2834 -118.86 123.439 
-10.4846 -118.86 123.439 
-50.2526 -118.86 123.439 
-90.0205 -118.86 123.439 
-129.789 -118.86 123.439 
-169.557 -118.86 123.439 
-209.324 -118.86 123.439 
-166.368 -122.266 117.758 
-166.368 -122.266 116.332 
-166.368 -122.266 114.907 
-166.368 -122.266 113.481 
-166.368 -122.266 112.055 
-166.368 -122.266 110.629 
-166.368 -122.266 109.204 
-166.368 -122.266 107.778 
-166.368 -122.266 106.352 
-166.368 -122.266 104.926 
-166.368 -122.266 103.501 
-133.73 -122.266 103.501 
-101.092 -122.266 103.501 
-68.4533 -122.266 103.501 
-35.8148 -122.266 103.501 
-3.17642 -122.266 103.501 
29.462 -122.266 103.501 
62.1004 -122.266 103.501 
94.7388 -122.266 103.501 
127.377 -122.266 103.501 
160.016 -122.266 103.501 
192.654 -122.266 103.501 
192.654 -122.266 104.926 
192.654 -122.266 106.352 
192.654 -122.266 107.778 
192.654 -122.266 109.204 
192.654 -122.266 110.629 
192.654 -122.266 112.055 
192.654 -122.266 113.481 
192.654 -122.266 114.907 
192.654 -122.266 116.332 
192.654 -122.266 117.758 
192.654 -122.266 119.184 
160.016 -122.266 119.184 
127.377 -122.266 119.184 
94.7388 -122.266 119.184 
62.1004 -122.266 119.184 
29.462 -122.266 119.184 
-3.17641 -122.266 119.184 
-35.8148 -122.266 119.184 
-68.4532 -122.266 119.184 
-101.092 -122.266 119.184 
-133.73 -122.266 119.184 
-166.368 -122.266 119.184 
-103.542 -125.671 112.865 
-103.542 -125.671 111.929 
-103.542 -125.671 110.992 
-103.542 -125.671 110.056 
-103.542 -125.671 109.119 
-103.542 -125.671 108.183 
-103.542 -125.671 107.246 
-103.542 -125.671 106.31 
-103.542 -125.671 105.374 
-103.542 -125.671 104.437 
-103.542 -125.671 103.501 
-81.9809 -125.671 103.501 
-60.4201 -125.671 103.501 
-38.8594 -125.671 103.501 
-17.2986 -125.671 103.501 
4.26213 -125.671 103.501 
25.8229 -125.671 103.501 
47.3836 -125.671 103.501 
68.9443 -125.671 103.501 
90.5051 -125.671 103.501 
112.066 -125.671 103.501 
133.627 -125.671 103.501 
133.627 -125.671 104.437 
133.627 -125.671 105.374 
133.627 -125.671 106.31 
133.627 -125.671 107.246 
133.627 -125.671 108.183 
133.627 -125.671 109.119 
133.627 -125.671 110.056 
133.627 -125.671 110.992 
133.627 -125.671 111.929 
133.627 -125.671 112.865 
133.627 -125.671 113.802 
112.066 -125.671 113.802 
90.5051 -125.671 113.802 
68.9444 -125.671 113.802 
47.3836 -125.671 113.802 
25.8229 -125.671 113.802 
4.26213 -125.671 113.802 
-17.2986 -125.671 113.802 
-38.8593 -125.671 113.802 
-60.4201 -125.671 113.802 
-81.9808 -125.671 113.802 
-103.542 -125.671 113.802 
-3.26317 -128.709 106.076 
-3.26317 -128.709 106.075 
-3.26317 -128.709 106.074 
-236.937 51.8933 -25.0851 
-193.573 51.8933 -25.0851 
-150.21 51.8933 -25.0851 
-106.846 51.8933 -25.0851 
-63.4823 51.8933 -25.0851 
-20.1187 51.8933 -25.0851 
23.2449 51.8933 -25.0851 
66.6086 51.8933 -25.0851 
109.972 51.8933 -25.0851 
153.336 51.8933 -25.0851 
196.699 51.8933 -25.0851 
240.063 51.8933 -25.0851 
23.245 51.8933 -25.0851 
-240.678 33.76 -21.494 
-240.678 33.76 -21.8531 
-240.678 33.76 -22.2122 
-240.678 33.76 -22.5713 
-240.678 33.76 -22.9304 
-240.678 33.76 -23.2896 
-240.678 33.76 -23.6487 
-240.678 33.76 -24.0078 
-240.678 33.76 -24.3669 
-240.678 33.76 -24.726 
-240.678 33.76 -25.0851 
-196.748 33.76 -25.0851 
-152.818 33.76 -25.0851 
-108.887 33.76 -25.0851 
-64.9573 33.76 -25.0851 
-21.027 33.76 -25.0851 
22.9032 33.76 -25.0851 
66.8334 33.76 -25.0851 
110.764 33.76 -25.0851 
154.694 33.76 -25.0851 
198.624 33.76 -25.0851 
242.554 33.76 -25.0851 
242.554 33.76 -24.726 
242.554 33.76 -24.3669 
242.554 33.76 -24.0078 
242.554 33.76 -23.6487 
242.554 33.76 -23.2896 
242.554 33.76 -22.9304 
242.554 33.76 -22.5713 
242.554 33.76 -22.2122 
242.554 33.76 -21.8531 
242.554 33.76 -21.494 
242.554 33.76 -21.1349 
198.624 33.76 -21.1349 
154.694 33.76 -21.1349 
110.764 33.76 -21.1349 
66.8334 33.76 -21.1349 
22.9032 33.76 -21.1349 
-21.027 33.76 -21.1349 
-64.9573 33.76 -21.1349 
-108.887 33.76 -21.1349 
-152.818 33.76 -21.1349 
-196.748 33.76 -21.1349 
-240.678 33.76 -21.1349 
-243.606 15.6266 -17.9043 
-243.606 15.6266 -18.6224 
-243.606 15.6266 -19.3404 
-243.606 15.6266 -20.0585 
-243.606 15.6266 -20.7766 
-243.606 15.6266 -21.4947 
-243.606 15.6266 -22.2128 
-243.606 15.6266 -22.9309 
-243.606 15.6266 -23.6489 
-243.606 15.6266 -24.367 
-243.606 15.6266 -25.0851 
-199.235 15.6266 -25.0851 
-154.864 15.6266 -25.0851 
-110.492 15.6266 -25.0851 
-66.121 15.6266 -25.0851 
-21.7497 15.6266 -25.0851 
22.6215 15.6266 -25.0851 
66.9928 15.6266 -25.0851 
111.364 15.6266 -25.0851 
155.735 15.6266 -25.0851 
200.107 15.6266 -25.0851 
244.478 15.6266 -25.0851 
244.478 15.6266 -24.367 
244.478 15.6266 -23.6489 
244.478 15.6266 -22.9309 
244.478 15.6266 -22.2128 
244.478 15.6266 -21.4947 
244.478 15.6266 -20.7766 
244.478 15.6266 -20.0585 
244.478 15.6266 -19.3404 
244.478 15.6266 -18.6224 
244.478 15.6266 -17.9043 
244.478 15.6266 -17.1862 
200.107 15.6266 -17.1862 
155.735 15.6266 -17.1862 
111.364 15.6266 -17.1862 
66.9928 15.6266 -17.1862 
22.6216 15.6266 -17.1862 
-21.7497 15.6266 -17.1862 
-66.121 15.6266 -17.1862 
-110.492 15.6266 -17.1862 
-154.863 15.6266 -17.1862 
-199.235 15.6266 -17.1862 
-243.606 15.6266 -17.1862 
-245.525 -2.50671 -14.3132 
-245.525 -2.50671 -15.3904 
-245.525 -2.50671 -16.4675 
-245.525 -2.50671 -17.5447 
-245.525 -2.50671 -18.6219 
-245.525 -2.50671 -19.6991 
-245.525 -2.50671 -20.7763 
-245.525 -2.50671 -21.8535 
-245.525 -2.50671 -22.9307 
-245.525 -2.50671 -24.0079 
-245.525 -2.50671 -25.0851 
-200.868 -2.50671 -25.0851 
-156.211 -2.50671 -25.0851 
-111.554 -2.50671 -25.0851 
-66.8971 -2.50671 -25.0851 
-22.2402 -2.50671 -25.0851 
22.4167 -2.50671 -25.0851 
67.0736 -2.50671 -25.0851 
111.731 -2.50671 -25.0851 
156.387 -2.50671 -25.0851 
201.044 -2.50671 -25.0851 
245.701 -2.50671 -25.0851 
245.701 -2.50671 -24.0079 
245.701 -2.50671 -22.9307 
245.701 -2.50671 -21.8535 
245.701 -2.50671 -20.7763 
245.701 -2.50671 -19.6991 
245.701 -2.50671 -18.6219 
245.701 -2.50671 -17.5447 
245.701 -2.50671 -16.4675 
245.701 -2.50671 -15.3904 
245.701 -2.50671 -14.3132 
245.701 -2.50671 -13.236 
201.044 -2.50671 -13.236 
156.388 -2.50671 -13.236 
111.731 -2.50671 -13.236 
67.0736 -2.50671 -13.236 
22.4167 -2.50671 -13.236 
-22.2402 -2.50671 -13.236 
-66.8971 -2.50671 -13.236 
-111.554 -2.50671 -13.236 
-156.211 -2.50671 -13.236 
-200.868 -2.50671 -13.236 
-245.525 -2.50671 -13.236 
-245.943 -16.1067 -13.2736 
-245.943 -16.1067 -14.4548 
-245.943 -16.1067 -15.6359 
-245.943 -16.1067 -16.8171 
-245.943 -16.1067 -17.9982 
-245.943 -16.1067 -19.1794 
-245.943 -16.1067 -20.3605 
-245.943 -16.1067 -21.5417 
-245.943 -16.1067 -22.7228 
-245.943 -16.1067 -23.904 
-245.943 -16.1067 -25.0851 
-201.229 -16.1067 -25.0851 
-156.514 -16.1067 -25.0851 
-111.8 -16.1067 -25.0851 
-67.0854 -16.1067 -25.0851 
-22.371 -16.1067 -25.0851 
22.3434 -16.1067 -25.0851 
67.0578 -16.1067 -25.0851 
111.772 -16.1067 -25.0851 
156.487 -16.1067 -25.0851 
201.201 -16.1067 -25.0851 
245.915 -16.1067 -25.0851 
245.915 -16.1067 -23.904 
245.915 -16.1067 -22.7228 
245.915 -16.1067 -21.5417 
245.915 -16.1067 -20.3605 
245.915 -16.1067 -19.1794 
245.915 -16.1067 -17.9982 
245.915 -16.1067 -16.8171 
245.915 -16.1067 -15.6359 
245.915 -16.1067 -14.4548 
245.915 -16.1067 -13.2736 
245.915 -16.1067 -12.0925 
201.201 -16.1067 -12.0925 
156.487 -16.1067 -12.0925 
111.772 -16.1067 -12.0925 
67.0578 -16.1067 -12.0925 
22.3434 -16.1067 -12.0925 
-22.371 -16.1067 -12.0925 
-67.0854 -16.1067 -12.0925 
-111.8 -16.1067 -12.0925 
-156.514 -16.1067 -12.0925 
-201.229 -16.1067 -12.0925 
-245.943 -16.1067 -12.0925 
-244.695 -29.7067 -12.8284 
-244.695 -29.7067 -14.0541 
-244.695 -29.7067 -15.2797 
-244.695 -29.7067 -16.5054 
-244.695 -29.7067 -17.7311 
-244.695 -29.7067 -18.9567 
-244.695 -29.7067 -20.1824 
-244.695 -29.7067 -21.4081 
-244.695 -29.7067 -22.6338 
-244.695 -29.7067 -23.8594 
-244.695 -29.7067 -25.0851 
-200.178 -29.7067 -25.0851 
-155.661 -29.7067 -25.0851 
-111.143 -29.7067 -25.0851 
-66.6258 -29.7067 -25.0851 
-22.1085 -29.7067 -25.0851 
22.4089 -29.7067 -25.0851 
66.9262 -29.7067 -25.0851 
111.444 -29.7067 -25.0851 
155.961 -29.7067 -25.0851 
200.478 -29.7067 -25.0851 
244.996 -29.7067 -25.0851 
244.996 -29.7067 -23.8594 
244.996 -29.7067 -22.6338 
244.996 -29.7067 -21.4081 
244.996 -29.7067 -20.1824 
244.996 -29.7067 -18.9567 
244.996 -29.7067 -17.7311 
244.996 -29.7067 -16.5054 
244.996 -29.7067 -15.2797 
244.996 -29.7067 -14.0541 
244.996 -29.7067 -12.8284 
244.996 -29.7067 -11.6027 
200.478 -29.7067 -11.6027 
155.961 -29.7067 -11.6027 
111.444 -29.7067 -11.6027 
66.9262 -29.7067 -11.6027 
22.4089 -29.7067 -11.6027 
-22.1085 -29.7067 -11.6027 
-66.6258 -29.7067 -11.6027 
-111.143 -29.7067 -11.6027 
-155.661 -29.7067 -11.6027 
-200.178 -29.7067 -11.6027 
-244.695 -29.7067 -11.6027 
-236.937 -43.3067 -13.5626 
-236.937 -43.3067 -14.7149 
-236.937 -43.3067 -15.8671 
-236.937 -43.3067 -17.0194 
-236.937 -43.3067 -18.1716 
-236.937 -43.3067 -19.3239 
-236.937 -43.3067 -20.4761 
-236.937 -43.3067 -21.6284 
-236.937 -43.3067 -22.7806 
-236.937 -43.3067 -23.9329 
-236.937 -43.3067 -25.0851 
-193.573 -43.3067 -25.0851 
-150.21 -43.3067 -25.0851 
-106.846 -43.3067 -25.0851 
-63.4823 -43.3067 -25.0851 
-20.1187 -43.3067 -25.0851 
23.2449 -43.3067 -25.0851 
66.6086 -43.3067 -25.0851 
109.972 -43.3067 -25.0851 
153.336 -43.3067 -25.0851 
196.699 -43.3067 -25.0851 
240.063 -43.3067 -25.0851 
240.063 -43.3067 -23.9329 
240.063 -43.3067 -22.7806 
240.063 -43.3067 -21.6284 
240.063 -43.3067 -20.4761 
240.063 -43.3067 -19.3239 
240.063 -43.3067 -18.1716 
240.063 -43.3067 -17.0194 
240.063 -43.3067 -15.8671 
240.063 -43.3067 -14.7149 
240.063 -43.3067 -13.5626 
240.063 -43.3067 -12.4104 
196.699 -43.3067 -12.4104 
153.336 -43.3067 -12.4104 
109.972 -43.3067 -12.4104 
66.6086 -43.3067 -12.4104 
23.245 -43.3067 -12.4104 
-20.1187 -43.3067 -12.4104 
-63.4823 -43.3067 -12.4104 
-106.846 -43.3067 -12.4104 
-150.21 -43.3067 -12.4104 
-193.573 -43.3067 -12.4104 
-236.937 -43.3067 -12.4104 
-229.02 -45.5244 -13.9595 
-229.02 -45.5244 -15.072 
-229.02 -45.5244 -16.1846 
-229.02 -45.5244 -17.2972 
-229.02 -45.5244 -18.4097 
-229.02 -45.5244 -19.5223 
-229.02 -45.5244 -20.6349 
-229.02 -45.5244 -21.7474 
-229.02 -45.5244 -22.86 
-229.02 -45.5244 -23.9725 
-229.02 -45.5244 -25.0851 
-186.823 -45.5244 -25.0851 
-144.626 -45.5244 -25.0851 
-102.428 -45.5244 -25.0851 
-60.2306 -45.5244 -25.0851 
-18.0331 -45.5244 -25.0851 
24.1644 -45.5244 -25.0851 
66.3618 -45.5244 -25.0851 
108.559 -45.5244 -25.0851 
150.757 -45.5244 -25.0851 
192.954 -45.5244 -25.0851 
235.152 -45.5244 -25.0851 
235.152 -45.5244 -23.9725 
235.152 -45.5244 -22.86 
235.152 -45.5244 -21.7474 
235.152 -45.5244 -20.6349 
235.152 -45.5244 -19.5223 
235.152 -45.5244 -18.4097 
235.152 -45.5244 -17.2972 
235.152 -45.5244 -16.1846 
235.152 -45.5244 -15.072 
235.152 -45.5244 -13.9595 
235.152 -45.5244 -12.8469 
192.954 -45.5244 -12.8469 
150.757 -45.5244 -12.8469 
108.559 -45.5244 -12.8469 
66.3618 -45.5244 -12.8469 
24.1644 -45.5244 -12.8469 
-18.0331 -45.5244 -12.8469 
-60.2306 -45.5244 -12.8469 
-102.428 -45.5244 -12.8469 
-144.626 -45.5244 -12.8469 
-186.823 -45.5244 -12.8469 
-229.02 -45.5244 -12.8469 
-213.36 -47.7421 -14.5655 
-213.36 -47.7421 -15.6175 
-213.36 -47.7421 -16.6694 
-213.36 -47.7421 -17.7214 
-213.36 -47.7421 -18.7734 
-213.36 -47.7421 -19.8253 
-213.36 -47.7421 -20.8773 
-213.36 -47.7421 -21.9292 
-213.36 -47.7421 -22.9812 
-213.36 -47.7421 -24.0331 
-213.36 -47.7421 -25.0851 
-173.58 -47.7421 -25.0851 
-133.801 -47.7421 -25.0851 
-94.0214 -47.7421 -25.0851 
-54.242 -47.7421 -25.0851 
-14.4626 -47.7421 -25.0851 
25.3168 -47.7421 -25.0851 
65.0962 -47.7421 -25.0851 
104.876 -47.7421 -25.0851 
144.655 -47.7421 -25.0851 
184.434 -47.7421 -25.0851 
224.214 -47.7421 -25.0851 
224.214 -47.7421 -24.0331 
224.214 -47.7421 -22.9812 
224.214 -47.7421 -21.9292 
224.214 -47.7421 -20.8773 
224.214 -47.7421 -19.8253 
224.214 -47.7421 -18.7734 
224.214 -47.7421 -17.7214 
224.214 -47.7421 -16.6694 
224.214 -47.7421 -15.6175 
224.214 -47.7421 -14.5655 
224.214 -47.7421 -13.5136 
184.434 -47.7421 -13.5136 
144.655 -47.7421 -13.5136 
104.876 -47.7421 -13.5136 
65.0962 -47.7421 -13.5136 
25.3168 -47.7421 -13.5136 
-14.4626 -47.7421 -13.5136 
-54.242 -47.7421 -13.5136 
-94.0214 -47.7421 -13.5136 
-133.801 -47.7421 -13.5136 
-173.58 -47.7421 -13.5136 
-213.36 -47.7421 -13.5136 
-188.392 -49.9598 -15.6887 
-188.392 -49.9598 -16.6284 
-188.392 -49.9598 -17.568 
-188.392 -49.9598 -18.5077 
-188.392 -49.9598 -19.4473 
-188.392 -49.9598 -20.3869 
-188.392 -49.9598 -21.3266 
-188.392 -49.9598 -22.2662 
-188.392 -49.9598 -23.2058 
-188.392 -49.9598 -24.1455 
-188.392 -49.9598 -25.0851 
-152.601 -49.9598 -25.0851 
-116.81 -49.9598 -25.0851 
-81.0185 -49.9598 -25.0851 
-45.2273 -49.9598 -25.0851 
-9.43612 -49.9598 -25.0851 
26.3551 -49.9598 -25.0851 
62.1462 -49.9598 -25.0851 
97.9374 -49.9598 -25.0851 
133.729 -49.9598 -25.0851 
169.52 -49.9598 -25.0851 
205.311 -49.9598 -25.0851 
205.311 -49.9598 -24.1455 
205.311 -49.9598 -23.2058 
205.311 -49.9598 -22.2662 
205.311 -49.9598 -21.3266 
205.311 -49.9598 -20.3869 
205.311 -49.9598 -19.4473 
205.311 -49.9598 -18.5077 
205.311 -49.9598 -17.568 
205.311 -49.9598 -16.6284 
205.311 -49.9598 -15.6887 
205.311 -49.9598 -14.7491 
169.52 -49.9598 -14.7491 
133.729 -49.9598 -14.7491 
97.9374 -49.9598 -14.7491 
62.1462 -49.9598 -14.7491 
26.3551 -49.9598 -14.7491 
-9.43611 -49.9598 -14.7491 
-45.2273 -49.9598 -14.7491 
-81.0185 -49.9598 -14.7491 
-116.81 -49.9598 -14.7491 
-152.601 -49.9598 -14.7491 
-188.392 -49.9598 -14.7491 
-149.732 -52.2755 -17.694 
-149.732 -52.2755 -18.4331 
-149.732 -52.2755 -19.1723 
-149.732 -52.2755 -19.9114 
-149.732 -52.2755 -20.6505 
-149.732 -52.2755 -21.3896 
-149.732 -52.2755 -22.1287 
-149.732 -52.2755 -22.8678 
-149.732 -52.2755 -23.6069 
-149.732 -52.2755 -24.346 
-149.732 -52.2755 -25.0851 
-120.357 -52.2755 -25.0851 
-90.9825 -52.2755 -25.0851 
-61.6079 -52.2755 -25.0851 
-32.2333 -52.2755 -25.0851 
-2.85877 -52.2755 -25.0851 
26.5158 -52.2755 -25.0851 
55.8904 -52.2755 -25.0851 
85.265 -52.2755 -25.0851 
114.64 -52.2755 -25.0851 
144.014 -52.2755 -25.0851 
173.389 -52.2755 -25.0851 
173.389 -52.2755 -24.346 
173.389 -52.2755 -23.6069 
173.389 -52.2755 -22.8678 
173.389 -52.2755 -22.1287 
173.389 -52.2755 -21.3896 
173.389 -52.2755 -20.6505 
173.389 -52.2755 -19.9114 
173.389 -52.2755 -19.1723 
173.389 -52.2755 -18.4331 
173.389 -52.2755 -17.694 
173.389 -52.2755 -16.9549 
144.014 -52.2755 -16.9549 
114.64 -52.2755 -16.9549 
85.265 -52.2755 -16.9549 
55.8904 -52.2755 -16.9549 
26.5158 -52.2755 -16.9549 
-2.85877 -52.2755 -16.9549 
-32.2333 -52.2755 -16.9549 
-61.6079 -52.2755 -16.9549 
-90.9825 -52.2755 -16.9549 
-120.357 -52.2755 -16.9549 
-149.732 -52.2755 -16.9549 
-93.1874 -54.5911 -20.2305 
-93.1874 -54.5911 -20.7159 
-93.1874 -54.5911 -21.2014 
-93.1874 -54.5911 -21.6869 
-93.1874 -54.5911 -22.1723 
-93.1874 -54.5911 -22.6578 
-93.1874 -54.5911 -23.1433 
-93.1874 -54.5911 -23.6287 
-93.1874 -54.5911 -24.1142 
-93.1874 -54.5911 -24.5996 
-93.1874 -54.5911 -25.0851 
-73.7828 -54.5911 -25.0851 
-54.3781 -54.5911 -25.0851 
-34.9734 -54.5911 -25.0851 
-15.5687 -54.5911 -25.0851 
3.83591 -54.5911 -25.0851 
23.2406 -54.5911 -25.0851 
42.6452 -54.5911 -25.0851 
62.0499 -54.5911 -25.0851 
81.4546 -54.5911 -25.0851 
100.859 -54.5911 -25.0851 
120.264 -54.5911 -25.0851 
120.264 -54.5911 -24.5996 
120.264 -54.5911 -24.1142 
120.264 -54.5911 -23.6287 
120.264 -54.5911 -23.1433 
120.264 -54.5911 -22.6578 
120.264 -54.5911 -22.1723 
120.264 -54.5911 -21.6869 
120.264 -54.5911 -21.2014 
120.264 -54.5911 -20.7159 
120.264 -54.5911 -20.2305 
120.264 -54.5911 -19.745 
100.859 -54.5911 -19.745 
81.4546 -54.5911 -19.745 
62.0499 -54.5911 -19.745 
42.6452 -54.5911 -19.745 
23.2406 -54.5911 -19.745 
3.83592 -54.5911 -19.745 
-15.5687 -54.5911 -19.745 
-34.9734 -54.5911 -19.745 
-54.3781 -54.5911 -19.745 
-73.7828 -54.5911 -19.745 
-93.1874 -54.5911 -19.745 
-2.93685 -56.9067 -25.0844 
-2.93685 -56.9067 -25.0845 
-2.93685 -56.9067 -25.0846 
-2.93685 -56.9067 -25.0847 
-2.93685 -56.9067 -25.0848 
-2.93685 -56.9067 -25.0849 
-2.93685 -56.9067 -25.085 
-2.93685 -56.9067 -25.0851 
-2.93685 -56.9067 -25.0843 
-49.5349 -23.0303 -82.3861 
-49.5349 -24.1261 -89.5196 
-49.5349 -22.4086 -96.5293 
-49.5349 -18.1394 -102.348 
-49.5349 -11.9682 -106.091 
-49.5349 -4.83479 -107.186 
-49.5349 2.17501 -105.469 
-49.5349 7.99396 -101.2 
-49.5349 11.7362 -95.0285 
-49.5349 12.832 -87.895 
-49.5349 11.1145 -80.8852 
-49.5349 6.84522 -75.0663 
-49.5349 0.6741 -71.324 
-49.5349 -6.45936 -70.2282 
-49.5349 -13.4691 -71.9457 
-49.5349 -19.2881 -76.215 
-54.7777 4.34238 -113.024 
-53.2421 5.76824 -116.447 
-49.5349 6.35885 -117.864 
-45.8276 5.76824 -116.447 
-44.292 4.34238 -113.024 
-45.8276 2.91652 -109.602 
-49.5349 2.32591 -108.185 
-53.2421 2.91652 -109.602 
-54.7777 -5.59272 -115.022 
-53.2421 -5.58497 -118.73 
-49.5349 -5.58176 -120.265 
-45.8276 -5.58497 -118.73 
-44.292 -5.59272 -115.022 
-45.8276 -5.60048 -111.315 
-49.5349 -5.60369 -109.779 
-53.2421 -5.60048 -111.315 
-54.7777 -15.5361 -113.066 
-53.2421 -16.9476 -116.494 
-49.5349 -17.5323 -117.914 
-45.8276 -16.9476 -116.494 
-44.292 -15.5361 -113.066 
-45.8276 -14.1246 -109.638 
-49.5349 -13.5399 -108.218 
-53.2421 -14.1246 -109.638 
-54.7777 -23.974 -107.454 
-53.2421 -26.5899 -110.08 
-49.5349 -27.6734 -111.169 
-45.8276 -26.5899 -110.08 
-44.292 -23.974 -107.454 
-45.8276 -21.358 -104.827 
-49.5349 -20.2745 -103.739 
-53.2421 -21.358 -104.827 
-54.7777 -29.6217 -99.0392 
-53.2421 -33.0438 -100.465 
-49.5349 -34.4613 -101.056 
-45.8276 -33.0438 -100.465 
-44.292 -29.6217 -99.0392 
-45.8276 -26.1997 -97.6134 
-49.5349 -24.7822 -97.0228 
-53.2421 -26.1997 -97.6134 
-54.7777 -31.6196 -89.1041 
-53.2421 -35.3268 -89.1119 
-49.5349 -36.8624 -89.1151 
-45.8276 -35.3268 -89.1119 
-44.292 -31.6196 -89.1041 
-45.8276 -27.9123 -89.0964 
-49.5349 -26.3767 -89.0932 
-53.2421 -27.9123 -89.0964 
-54.7777 -29.6633 -79.1607 
-53.2421 -33.0913 -77.7492 
-49.5349 -34.5112 -77.1645 
-45.8276 -33.0913 -77.7492 
-44.292 -29.6633 -79.1607 
-45.8276 -26.2353 -80.5723 
-49.5349 -24.8154 -81.157 
-53.2421 -26.2353 -80.5723 
-54.7777 -24.0508 -70.7229 
-53.2421 -26.6777 -68.107 
-49.5349 -27.7658 -67.0234 
-45.8276 -26.6777 -68.107 
-44.292 -24.0508 -70.7229 
-45.8276 -21.4239 -73.3388 
-49.5349 -20.3358 -74.4224 
-53.2421 -21.4239 -73.3388 
-54.7777 -15.6365 -65.0751 
-53.2421 -17.0623 -61.6531 
-49.5349 -17.653 -60.2356 
-45.8276 -17.0623 -61.6531 
-44.292 -15.6365 -65.0751 
-45.8276 -14.2106 -68.4972 
-49.5349 -13.62 -69.9147 
-53.2421 -14.2106 -68.4972 
-54.7777 -5.70138 -63.0773 
-53.2421 -5.70913 -59.3701 
-49.5349 -5.71234 -57.8345 
-45.8276 -5.70913 -59.3701 
-44.292 -5.70138 -63.0773 
-45.8276 -5.69362 -66.7845 
-49.5349 -5.69041 -68.3201 
-53.2421 -5.69362 -66.7845 
-54.7777 4.24201 -65.0336 
-53.2421 5.65354 -61.6056 
-49.5349 6.23822 -60.1856 
-45.8276 5.65354 -61.6056 
-44.292 4.24201 -65.0336 
-45.8276 2.83047 -68.4616 
-49.5349 2.24579 -69.8815 
-53.2421 2.83047 -68.4616 
-54.7777 12.6799 -70.6461 
-53.2421 15.2958 -68.0192 
-49.5349 16.3793 -66.9311 
-45.8276 15.2958 -68.0192 
-44.292 12.6799 -70.6461 
-45.8276 10.0639 -73.273 
-49.5349 8.98038 -74.3611 
-53.2421 10.0639 -73.273 
-54.7777 18.3276 -79.0604 
-53.2421 21.7497 -77.6345 
-49.5349 23.1672 -77.0439 
-45.8276 21.7497 -77.6345 
-44.292 18.3276 -79.0604 
-45.8276 14.9055 -80.4862 
-49.5349 13.4881 -81.0769 
-53.2421 14.9055 -80.4862 
-54.7777 20.3254 -88.9955 
-53.2421 24.0327 -88.9877 
-49.5349 25.5683 -88.9845 
-45.8276 24.0327 -88.9877 
-44.292 20.3254 -88.9955 
-45.8276 16.6182 -89.0033 
-49.5349 15.0826 -89.0065 
-53.2421 16.6182 -89.0033 
-54.7777 18.3692 -98.9389 
-53.2421 21.7972 -100.35 
-49.5349 23.2171 -100.935 
-45.8276 21.7972 -100.35 
-44.292 18.3692 -98.9389 
-45.8276 14.9412 -97.5273 
-49.5349 13.5212 -96.9427 
-53.2421 14.9412 -97.5273 
-54.7777 12.7567 -107.377 
-53.2421 15.3836 -109.993 
-49.5349 16.4716 -111.076 
-45.8276 15.3836 -109.993 
-44.292 12.7567 -107.377 
-45.8276 10.1298 -104.761 
-49.5349 9.04168 -103.677 
-53.2421 10.1298 -104.761 
49.5072 -23.0303 -82.3861 
49.5072 -24.1261 -89.5196 
49.5072 -22.4086 -96.5293 
49.5072 -18.1394 -102.348 
49.5072 -11.9682 -106.091 
49.5072 -4.83479 -107.186 
49.5072 2.17501 -105.469 
49.5072 7.99396 -101.2 
49.5072 11.7362 -95.0285 
49.5072 12.832 -87.895 
49.5072 11.1145 -80.8852 
49.5072 6.84522 -75.0663 
49.5072 0.6741 -71.324 
49.5072 -6.45936 -70.2282 
49.5072 -13.4691 -71.9457 
49.5072 -19.2881 -76.215 
54.7501 4.34238 -113.024 
53.2145 5.76824 -116.447 
49.5072 6.35885 -117.864 
45.8 5.76824 -116.447 
44.2644 4.34238 -113.024 
45.8 2.91652 -109.602 
49.5072 2.32591 -108.185 
53.2145 2.91652 -109.602 
54.7501 -5.59272 -115.022 
53.2145 -5.58497 -118.73 
49.5072 -5.58176 -120.265 
45.8 -5.58497 -118.73 
44.2644 -5.59272 -115.022 
45.8 -5.60048 -111.315 
49.5072 -5.60369 -109.779 
53.2145 -5.60048 -111.315 
54.7501 -15.5361 -113.066 
53.2145 -16.9476 -116.494 
49.5072 -17.5323 -117.914 
45.8 -16.9476 -116.494 
44.2644 -15.5361 -113.066 
45.8 -14.1246 -109.638 
49.5072 -13.5399 -108.218 
53.2145 -14.1246 -109.638 
54.7501 -23.974 -107.454 
53.2145 -26.5899 -110.08 
49.5072 -27.6734 -111.169 
45.8 -26.5899 -110.08 
44.2644 -23.974 -107.454 
45.8 -21.358 -104.827 
49.5072 -20.2745 -103.739 
53.2145 -21.358 -104.827 
54.7501 -29.6217 -99.0392 
53.2145 -33.0438 -100.465 
49.5072 -34.4613 -101.056 
45.8 -33.0438 -100.465 
44.2644 -29.6217 -99.0392 
45.8 -26.1997 -97.6134 
49.5072 -24.7822 -97.0228 
53.2145 -26.1997 -97.6134 
54.7501 -31.6196 -89.1041 
53.2145 -35.3268 -89.1119 
49.5072 -36.8624 -89.1151 
45.8 -35.3268 -89.1119 
44.2644 -31.6196 -89.1041 
45.8 -27.9123 -89.0964 
49.5072 -26.3767 -89.0932 
53.2145 -27.9123 -89.0964 
54.7501 -29.6633 -79.1607 
53.2145 -33.0913 -77.7492 
49.5072 -34.5112 -77.1645 
45.8 -33.0913 -77.7492 
44.2644 -29.6633 -79.1607 
45.8 -26.2353 -80.5723 
49.5072 -24.8154 -81.157 
53.2145 -26.2353 -80.5723 
54.7501 -24.0508 -70.7229 
53.2145 -26.6777 -68.107 
49.5072 -27.7658 -67.0234 
45.8 -26.6777 -68.107 
44.2644 -24.0508 -70.7229 
45.8 -21.4239 -73.3388 
49.5072 -20.3358 -74.4224 
53.2145 -21.4239 -73.3388 
54.7501 -15.6365 -65.0751 
53.2145 -17.0623 -61.6531 
49.5072 -17.653 -60.2356 
45.8 -17.0623 -61.6531 
44.2644 -15.6365 -65.0751 
45.8 -14.2106 -68.4972 
49.5072 -13.62 -69.9147 
53.2145 -14.2106 -68.4972 
54.7501 -5.70138 -63.0773 
53.2145 -5.70913 -59.3701 
49.5072 -5.71234 -57.8345 
45.8 -5.70913 -59.3701 
44.2644 -5.70138 -63.0773 
45.8 -5.69362 -66.7845 
49.5072 -5.69041 -68.3201 
53.2145 -5.69362 -66.7845 
54.7501 4.24201 -65.0336 
53.2145 5.65354 -61.6056 
49.5072 6.23822 -60.1856 
45.8 5.65354 -61.6056 
44.2644 4.24201 -65.0336 
45.8 2.83047 -68.4616 
49.5072 2.24579 -69.8815 
53.2145 2.83047 -68.4616 
54.7501 12.6799 -70.6461 
53.2145 15.2958 -68.0192 
49.5072 16.3793 -66.9311 
45.8 15.2958 -68.0192 
44.2644 12.6799 -70.6461 
45.8 10.0639 -73.273 
49.5072 8.98038 -74.3611 
53.2145 10.0639 -73.273 
54.7501 18.3276 -79.0604 
53.2145 21.7497 -77.6345 
49.5072 23.1672 -77.0439 
45.8 21.7497 -77.6345 
44.2644 18.3276 -79.0604 
45.8 14.9055 -80.4862 
49.5072 13.4881 -81.0769 
53.2145 14.9055 -80.4862 
54.7501 20.3254 -88.9955 
53.2145 24.0327 -88.9877 
49.5072 25.5683 -88.9845 
45.8 24.0327 -88.9877 
44.2644 20.3254 -88.9955 
45.8 16.6182 -89.0033 
49.5072 15.0826 -89.0065 
53.2145 16.6182 -89.0033 
54.7501 18.3692 -98.9389 
53.2145 21.7972 -100.35 
49.5072 23.2171 -100.935 
45.8 21.7972 -100.35 
44.2644 18.3692 -98.9389 
45.8 14.9412 -97.5273 
49.5072 13.5212 -96.9427 
53.2145 14.9412 -97.5273 
54.7501 12.7567 -107.377 
53.2145 15.3836 -109.993 
49.5072 16.4716 -111.076 
45.8 15.3836 -109.993 
44.2644 12.7567 -107.377 
45.8 10.1298 -104.761 
49.5072 9.04168 -103.677 
53.2145 10.1298 -104.761 
44.0189 -9.71471 -86.8705 
43.3927 -9.05381 -87.1312 
42.9373 -7.95101 -87.3208 
42.722 -6.5742 -87.4104 
42.7796 -5.13298 -87.3864 
43.1014 -3.84676 -87.2525 
43.6383 -2.91136 -87.0289 
44.3086 -2.4692 -86.7498 
45.0103 -2.58757 -86.4577 
45.6365 -3.24846 -86.197 
46.0919 -4.35126 -86.0074 
46.3072 -5.72808 -85.9178 
46.2496 -7.1693 -85.9418 
45.9278 -8.45552 -86.0757 
45.3909 -9.39091 -86.2993 
44.7206 -9.83308 -86.5783 
6.25253 -9.51091 -25.9556 
5.66214 -8.88781 -26.2014 
5.23278 -7.84808 -26.3802 
5.02981 -6.55 -26.4647 
5.08415 -5.19121 -26.4421 
5.38751 -3.97855 -26.3158 
5.89371 -3.09665 -26.105 
6.52569 -2.67977 -25.8419 
7.18723 -2.79137 -25.5665 
7.77762 -3.41447 -25.3207 
8.20699 -4.4542 -25.1419 
8.40995 -5.75228 -25.0574 
8.35562 -7.11107 -25.08 
8.05225 -8.32373 -25.2063 
7.54605 -9.20563 -25.4171 
6.91407 -9.62251 -25.6802 
-44.3434 -8.0496 -84.4453 
-43.6789 -7.50133 -84.8387 
-43.1957 -6.53424 -85.3779 
-42.9673 -5.29552 -85.9808 
-43.0285 -3.97379 -86.5555 
-43.3699 -2.77027 -87.0146 
-43.9396 -1.86816 -87.2882 
-44.6508 -1.40481 -87.3346 
-45.3953 -1.45077 -87.1468 
-46.0598 -1.99903 -86.7534 
-46.543 -2.96614 -86.2142 
-46.7714 -4.20484 -85.6113 
-46.7103 -5.52657 -85.0366 
-46.3689 -6.7301 -84.5775 
-45.7992 -7.63221 -84.3039 
-45.0879 -8.09555 -84.2575 
-18.894 19.3887 -23.319 
-18.2675 19.9056 -23.6899 
-17.812 20.8174 -24.1983 
-17.5966 21.9853 -24.7666 
-17.6543 23.2314 -25.3085 
-17.9761 24.3661 -25.7413 
-18.5133 25.2166 -25.9993 
-19.1838 25.6535 -26.0431 
-19.8858 25.6101 -25.866 
-20.5122 25.0932 -25.495 
-20.9678 24.1814 -24.9867 
-21.1832 23.0136 -24.4183 
-21.1255 21.7674 -23.8765 
-20.8036 20.6327 -23.4436 
-20.2665 19.7822 -23.1857 
-19.5959 19.3454 -23.1419 
-43.8226 -9.71471 -86.8705 
-43.1964 -9.05381 -87.1312 
-42.741 -7.95101 -87.3208 
-42.5257 -6.5742 -87.4104 
-42.5833 -5.13298 -87.3864 
-42.9051 -3.84676 -87.2525 
-43.442 -2.91136 -87.0289 
-44.1123 -2.4692 -86.7498 
-44.814 -2.58757 -86.4577 
-45.4402 -3.24846 -86.197 
-45.8956 -4.35126 -86.0074 
-46.1109 -5.72808 -85.9178 
-46.0533 -7.1693 -85.9418 
-45.7315 -8.45552 -86.0757 
-45.1946 -9.39091 -86.2993 
-44.5243 -9.83308 -86.5783 
-6.05622 -9.51091 -25.9556 
-5.46583 -8.88781 -26.2014 
-5.03647 -7.84808 -26.3802 
-4.83351 -6.55 -26.4647 
-4.88784 -5.19121 -26.4421 
-5.1912 -3.97855 -26.3158 
-5.69741 -3.09665 -26.105 
-6.32938 -2.67977 -25.8419 
-6.99093 -2.79137 -25.5665 
-7.58132 -3.41447 -25.3207 
-8.01068 -4.4542 -25.1419 
-8.21365 -5.75228 -25.0574 
-8.15931 -7.11107 -25.08 
-7.85595 -8.32373 -25.2063 
-7.34975 -9.20563 -25.4171 
-6.71777 -9.62251 -25.6802 
44.5397 -8.0496 -84.4453 
43.8752 -7.50133 -84.8387 
43.392 -6.53424 -85.3779 
43.1636 -5.29552 -85.9808 
43.2248 -3.97379 -86.5555 
43.5662 -2.77027 -87.0146 
44.1359 -1.86816 -87.2882 
44.8471 -1.40481 -87.3346 
45.5916 -1.45077 -87.1468 
46.2561 -1.99903 -86.7534 
46.7393 -2.96614 -86.2142 
46.9677 -4.20484 -85.6113 
46.9066 -5.52657 -85.0366 
46.5652 -6.7301 -84.5775 
45.9955 -7.63221 -84.3039 
45.2842 -8.09555 -84.2575 
19.0903 19.3887 -23.319 
18.4638 19.9056 -23.6899 
18.0083 20.8174 -24.1983 
17.7929 21.9853 -24.7666 
17.8506 23.2314 -25.3085 
18.1724 24.3661 -25.7413 
18.7096 25.2166 -25.9993 
19.3801 25.6535 -26.0431 
20.0821 25.6101 -25.866 
20.7085 25.0932 -25.495 
21.1641 24.1814 -24.9867 
21.3795 23.0136 -24.4183 
21.3218 21.7674 -23.8765 
20.9999 20.6327 -23.4436 
20.4628 19.7822 -23.1857 
19.7922 19.3454 -23.1419 
15.663 189.226 32.5716 
10.8448 207.696 32.5716 
6.02668 226.166 32.5716 
6.82971 226.656 32.5716 
12.4509 231.698 32.5716 
27.7084 246.643 32.5716 
45.3274 258.174 32.5716 
104.039 258.297 32.5716 
142.14 256.279 32.5716 
147.427 247.531 32.5716 
149.674 231.285 32.5716 
150.142 222.536 32.5716 
150.298 219.105 32.5716 
144.393 211.127 32.5716 
122.867 202.075 32.5716 
94.449 193.955 32.5716 
64.96 184.497 32.5716 
20.4812 170.757 32.5716 
15.663 189.226 35.8069 
10.8448 207.696 35.8069 
6.02668 226.166 35.8069 
6.82971 226.656 35.8069 
12.4509 231.698 35.8069 
27.7084 246.643 35.8069 
45.3274 258.174 35.8069 
104.039 258.297 35.8069 
142.14 256.279 35.8069 
147.427 247.531 35.8069 
149.674 231.285 35.8069 
150.142 222.536 35.8069 
150.298 219.105 35.8069 
144.393 211.127 35.8069 
122.867 202.075 35.8069 
94.449 193.955 35.8069 
64.96 184.497 35.8069 
20.4812 170.757 35.8069 
-13.1822 189.226 32.5716 
-8.36401 207.696 32.5716 
-3.54585 226.166 32.5716 
-4.34888 226.656 32.5716 
-9.97007 231.698 32.5716 
-25.2276 246.643 32.5716 
-42.8466 258.174 32.5716 
-101.558 258.297 32.5716 
-139.659 256.279 32.5716 
-144.946 247.531 32.5716 
-147.193 231.285 32.5716 
-147.661 222.536 32.5716 
-147.817 219.105 32.5716 
-141.912 211.127 32.5716 
-120.386 202.075 32.5716 
-91.9682 193.955 32.5716 
-62.4792 184.497 32.5716 
-18.0004 170.757 32.5716 
-13.1822 189.226 35.8069 
-8.36401 207.696 35.8069 
-3.54585 226.166 35.8069 
-4.34888 226.656 35.8069 
-9.97007 231.698 35.8069 
-25.2276 246.643 35.8069 
-42.8466 258.174 35.8069 
-101.558 258.297 35.8069 
-139.659 256.279 35.8069 
-144.946 247.531 35.8069 
-147.193 231.285 35.8069 
-147.661 222.536 35.8069 
-147.817 219.105 35.8069 
-141.912 211.127 35.8069 
-120.386 202.075 35.8069 
-91.9682 193.955 35.8069 
-62.4792 184.497 35.8069 
-18.0004 170.757 35.8069 
3.5968 150.47 41.0553 
3.5968 157.793 43.0129 
3.5968 172.878 47.6812 
3.59681 190.331 53.2529 
3.59681 204.758 57.9212 
3.59681 210.766 59.8788 
3.59681 210.892 64.4266 
3.59681 212.103 75.6604 
3.59681 215.65 89.9663 
3.59681 222.781 103.73 
3.59682 234.747 113.338 
3.59682 248.993 116.446 
3.59682 261.562 114.711 
3.59683 271.599 110.519 
3.59683 278.247 106.254 
3.59683 280.654 104.302 
3.59683 281.438 103.327 
3.59683 283.307 100.833 
3.59683 285.538 97.4716 
3.59683 287.407 93.8937 
3.59683 288.191 90.7494 
3.59683 288.613 85.274 
3.59683 289.265 75.1364 
3.59683 289.227 61.6377 
3.59683 287.577 46.0789 
3.59683 283.395 29.7612 
3.59683 278.357 16.7684 
3.59683 274.668 9.30525 
3.59683 272.196 5.85377 
3.59682 270.809 4.89603 
3.59682 270.376 4.9141 
3.59682 266.901 4.23946 
3.59682 258.69 3.49255 
3.59682 249.064 4.58883 
3.59682 241.347 9.44379 
3.59682 238.858 19.9729 
3.59682 238.935 31.2068 
3.59682 237.334 37.7423 
3.59682 235.01 40.8444 
3.59682 232.916 41.7781 
3.59682 232.006 41.8082 
3.59681 215.699 41.6576 
3.59681 199.392 41.507 
3.59681 183.085 41.3564 
3.5968 166.778 41.2059 
1.27481 150.47 41.0553 
1.27481 157.793 43.0129 
1.27481 172.878 47.6812 
1.27482 190.331 53.2529 
1.27482 204.758 57.9212 
1.27482 210.766 59.8788 
1.27482 210.892 64.4266 
1.27482 212.103 75.6604 
1.27482 215.65 89.9663 
1.27482 222.781 103.73 
1.27483 234.747 113.338 
1.27483 248.993 116.446 
1.27483 261.562 114.711 
1.27483 271.599 110.519 
1.27484 278.247 106.254 
1.27484 280.654 104.302 
1.27484 281.438 103.327 
1.27484 283.307 100.833 
1.27484 285.538 97.4716 
1.27484 287.407 93.8937 
1.27484 288.191 90.7494 
1.27484 288.613 85.274 
1.27484 289.265 75.1364 
1.27484 289.227 61.6377 
1.27484 287.577 46.0789 
1.27485 283.395 29.7612 
1.27485 278.357 16.7684 
1.27485 274.668 9.30525 
1.27485 272.196 5.85377 
1.27485 270.809 4.89603 
1.27485 270.376 4.9141 
1.27485 266.901 4.23946 
1.27485 258.69 3.49255 
1.27484 249.064 4.58883 
1.27484 241.347 9.44379 
1.27484 238.858 19.9729 
1.27484 238.935 31.2068 
1.27483 237.334 37.7423 
1.27483 235.01 40.8444 
1.27483 232.916 41.7781 
1.27483 232.006 41.8082 
1.27482 215.699 41.6576 
1.27482 199.392 41.507 
1.27481 183.085 41.3564 
1.27481 166.778 41.2059 
200 -68.954 107.568 
198.087 -69.4445 107.36 
196.464 -70.8413 106.767 
195.381 -72.9317 105.879 
195 -75.3975 104.833 
195.381 -77.8633 103.786 
196.464 -79.9538 102.899 
198.087 -81.3506 102.306 
200 -81.8411 102.098 
201.913 -81.3506 102.306 
203.536 -79.9538 102.899 
204.619 -77.8633 103.786 
205 -75.3975 104.833 
204.619 -72.9317 105.88 
203.536 -70.8413 106.767 
201.913 -69.4445 107.36 
200 -18.1589 -12.0977 
198.087 -18.6494 -12.3059 
196.464 -20.0462 -12.8988 
195.381 -22.1367 -13.7861 
195 -24.6025 -14.8328 
195.381 -27.0683 -15.8795 
196.464 -29.1587 -16.7668 
198.087 -30.5555 -17.3597 
200 -31.046 -17.5679 
201.913 -30.5555 -17.3597 
203.536 -29.1587 -16.7668 
204.619 -27.0683 -15.8795 
205 -24.6025 -14.8328 
204.619 -22.1366 -13.7861 
203.536 -20.0462 -12.8988 
201.913 -18.6494 -12.3059 
-196.604 -68.954 107.568 
-194.691 -69.4445 107.36 
-193.069 -70.8413 106.767 
-191.985 -72.9317 105.879 
-191.604 -75.3975 104.833 
-191.985 -77.8633 103.786 
-193.069 -79.9538 102.899 
-194.691 -81.3506 102.306 
-196.604 -81.8411 102.098 
-198.518 -81.3506 102.306 
-200.14 -79.9538 102.899 
-201.224 -77.8633 103.786 
-201.604 -75.3975 104.833 
-201.224 -72.9317 105.88 
-200.14 -70.8413 106.767 
-198.518 -69.4445 107.36 
-196.604 -18.1589 -12.0977 
-194.691 -18.6494 -12.3059 
-193.069 -20.0462 -12.8988 
-191.985 -22.1367 -13.7861 
-191.604 -24.6025 -14.8328 
-191.985 -27.0683 -15.8795 
-193.069 -29.1587 -16.7668 
-194.691 -30.5555 -17.3597 
-196.604 -31.046 -17.5679 
-198.518 -30.5555 -17.3597 
-200.14 -29.1587 -16.7668 
-201.224 -27.0683 -15.8795 
-201.604 -24.6025 -14.8328 
-201.224 -22.1366 -13.7861 
-200.14 -20.0462 -12.8988 
-198.518 -18.6494 -12.3059 
-2.30734 -145.043 9.98023 
1.84426 -144.001 15.6944 
5.60695 -140.839 20.8733 
1.45535 -141.881 15.1591 
-48.9111 -143.547 38.481 
-42.7825 -144.592 46.9164 
-36.7614 -142.384 55.2037 
-42.8901 -141.338 46.7683 
-76.5146 -142.128 62.2517 
-72.0553 -144.18 68.3894 
-67.4411 -143.803 74.7403 
-71.9004 -141.75 68.6026 
-0.0128708 -145.043 8.31321 
4.13873 -144.001 14.0274 
7.90142 -140.839 19.2063 
3.74982 -141.881 13.4921 
41.4944 -143.547 -27.2024 
47.623 -144.592 -18.767 
53.6441 -142.384 -10.4798 
47.5154 -141.338 -18.9152 
72.6316 -142.128 -46.1093 
77.0908 -144.18 -39.9717 
81.705 -143.803 -33.6208 
77.2458 -141.75 -39.7584 
7.10312 -145.043 4.80469 
1.38893 -144.001 8.95629 
-3.78998 -140.839 12.719 
1.92421 -141.881 8.56739 
-21.3977 -143.547 -41.7991 
-29.8331 -144.592 -35.6704 
-38.1203 -142.384 -29.6494 
-29.685 -141.338 -35.7781 
-45.1684 -142.128 -69.4026 
-51.306 -144.18 -64.9433 
-57.6569 -143.803 -60.3291 
-51.5193 -141.75 -64.7884 
8.77014 -145.043 7.09916 
3.05595 -144.001 11.2508 
-2.12294 -140.839 15.0134 
3.59125 -141.881 10.8619 
44.2858 -143.547 48.6064 
35.8504 -144.592 54.7351 
27.5631 -142.384 60.7561 
35.9985 -141.338 54.6275 
63.1927 -142.128 79.7436 
57.055 -144.18 84.2029 
50.7041 -143.803 88.8171 
56.8418 -141.75 84.3578 
3.18134 -156.92 14.4433 
17.4356 -150.261 7.00633 
18.5194 -150.261 19.2639 
10.6184 -150.261 28.6976 
-1.63918 -150.261 29.7814 
-11.0729 -150.261 21.8803 
-12.1567 -150.261 9.6228 
-4.25566 -150.261 0.189065 
8.00189 -150.261 -0.894708 
23.3399 -134.183 3.92582 
24.8726 -134.183 21.2606 
13.6989 -134.183 34.6019 
-3.6359 -134.183 36.1346 
-16.9772 -134.183 24.9608 
-18.5099 -134.183 7.62607 
-7.33616 -134.183 -5.71524 
9.99862 -134.183 -7.24793 
1.40538 231.995 40.642 
0.621687 231.995 40.1457 
2.23774 231.995 40.9508 
-0.104162 231.995 39.4774 
-0.762997 231.995 38.6522 
-1.34564 231.995 37.6854 
-1.84291 231.995 36.5921 
-2.24565 231.995 35.3876 
-2.54467 231.995 34.0872 
-2.73082 231.995 32.7059 
-2.79491 231.995 31.2592 
-2.73082 231.995 29.8124 
-2.54467 231.995 28.4311 
-2.24565 231.995 27.1307 
-1.84291 231.995 25.9262 
-1.34564 231.995 24.8329 
-0.762997 231.995 23.8661 
-0.104162 231.995 23.0409 
0.621687 231.995 22.3726 
1.40538 231.995 21.8764 
2.23774 231.995 21.5675 
3.1096 231.995 21.4611 
3.98146 231.995 21.5675 
4.81383 231.995 21.8764 
5.59753 231.995 22.3726 
6.32338 231.995 23.0409 
6.9822 231.995 23.8661 
7.56484 231.995 24.8329 
8.06212 231.995 25.9262 
8.46486 231.995 27.1307 
8.76389 231.995 28.4311 
8.95003 231.995 29.8124 
9.01412 231.995 31.2592 
8.95003 231.995 32.7059 
8.76389 231.995 34.0872 
8.46486 231.995 35.3876 
8.06212 231.995 36.5921 
7.56485 231.995 37.6854 
6.9822 231.995 38.6522 
6.32338 231.995 39.4774 
5.59753 231.995 40.1457 
4.81383 231.995 40.642 
3.98146 231.995 40.9508 
3.1096 231.995 41.0572 
-3.13894 172.95 40.3406 
-0.0870807 172.95 41.0079 
-6.01235 172.95 39.2688 
-8.67367 172.95 37.8253 
-11.0893 172.95 36.0429 
-13.2255 172.95 33.9545 
-15.0488 172.95 31.5931 
-16.5254 172.95 28.9914 
-17.6218 172.95 26.1824 
-18.3043 172.95 23.1989 
-18.5393 172.95 20.0739 
-18.3043 172.95 16.9488 
-17.6218 172.95 13.9654 
-16.5254 172.95 11.1564 
-15.0488 172.95 8.5547 
-13.2255 172.95 6.19323 
-11.0893 172.95 4.10486 
-8.67367 172.95 2.32246 
-6.01235 172.95 0.878912 
-3.13894 172.95 -0.192898 
-0.0870807 172.95 -0.860102 
3.10959 172.95 -1.08981 
6.30627 172.95 -0.860102 
9.35814 172.95 -0.192898 
12.2315 172.95 0.878912 
14.8929 172.95 2.32246 
17.3085 172.95 4.10486 
19.4447 172.95 6.19323 
21.268 172.95 8.5547 
22.7446 172.95 11.1564 
23.841 172.95 13.9654 
24.5235 172.95 16.9488 
24.7585 172.95 20.0739 
24.5235 172.95 23.1989 
23.841 172.95 26.1824 
22.7446 172.95 28.9914 
21.268 172.95 31.593 
19.4447 172.95 33.9545 
17.3085 172.95 36.0429 
14.8929 172.95 37.8253 
12.2315 172.95 39.2688 
9.35814 172.95 40.3406 
6.30628 172.95 41.0079 
3.10959 172.95 41.2376 
-5.41154 143.428 40.2545 
-1.24971 143.428 41.1002 
-9.33 143.428 38.896 
-12.9592 143.428 37.0662 
-16.2534 143.428 34.8069 
-19.1666 143.428 32.1598 
-21.653 143.428 29.1666 
-23.6667 143.428 25.8689 
-25.1618 143.428 22.3083 
-26.0925 143.428 18.5267 
-26.413 143.428 14.5656 
-26.0925 143.428 10.6045 
-25.1618 143.428 6.82282 
-23.6667 143.428 3.26229 
-21.653 143.428 -0.0354443 
-19.1666 143.428 -3.02869 
-16.2534 143.428 -5.67578 
-12.9592 143.428 -7.93505 
-9.33 143.428 -9.7648 
-5.41154 143.428 -11.1234 
-1.24971 143.428 -11.9691 
3.10959 143.428 -12.2602 
7.4689 143.428 -11.9691 
11.6307 143.428 -11.1234 
15.5492 143.428 -9.7648 
19.1784 143.428 -7.93505 
22.4726 143.428 -5.67579 
25.3858 143.428 -3.02869 
27.8722 143.428 -0.0354443 
29.8859 143.428 3.26228 
31.381 143.428 6.82282 
32.3118 143.428 10.6045 
32.6322 143.428 14.5656 
32.3118 143.428 18.5267 
31.381 143.428 22.3083 
29.8859 143.428 25.8689 
27.8722 143.428 29.1666 
25.3858 143.428 32.1598 
22.4726 143.428 34.8069 
19.1784 143.428 37.0662 
15.5492 143.428 38.896 
11.6307 143.428 40.2545 
7.4689 143.428 41.1002 
3.10959 143.428 41.3914 
-6.17337 108.689 46.696 
-1.63946 108.689 47.6841 
-10.4422 108.689 45.1087 
-14.3959 108.689 42.9709 
-17.9846 108.689 40.3313 
-21.1582 108.689 37.2385 
-23.8669 108.689 33.7414 
-26.0606 108.689 29.8884 
-27.6895 108.689 25.7285 
-28.7034 108.689 21.3101 
-29.0525 108.689 16.6821 
-28.7034 108.689 12.0542 
-27.6895 108.689 7.63583 
-26.0606 108.689 3.47585 
-23.8669 108.689 -0.377085 
-21.1582 108.689 -3.87428 
-17.9846 108.689 -6.96703 
-14.3959 108.689 -9.60665 
-10.4422 108.689 -11.7445 
-6.17338 108.689 -13.3318 
-1.63947 108.689 -14.3198 
3.10959 108.689 -14.66 
7.85865 108.689 -14.3198 
12.3926 108.689 -13.3318 
16.6614 108.689 -11.7445 
20.6151 108.689 -9.60665 
24.2038 108.689 -6.96703 
27.3774 108.689 -3.87428 
30.0861 108.689 -0.377085 
32.2799 108.689 3.47585 
33.9087 108.689 7.63582 
34.9226 108.689 12.0541 
35.2717 108.689 16.6821 
34.9226 108.689 21.3101 
33.9087 108.689 25.7285 
32.2799 108.689 29.8884 
30.0861 108.689 33.7414 
27.3774 108.689 37.2385 
24.2038 108.689 40.3313 
20.6151 108.689 42.9709 
16.6614 108.689 45.1087 
12.3926 108.689 46.696 
7.85865 108.689 47.6841 
3.10959 108.689 48.0243 
-7.56269 39.2126 59.5898 
-2.35021 39.2126 60.856 
-12.4704 39.2126 57.5557 
-17.0158 39.2126 54.8162 
