# .PCD v.7 - Point Cloud Data file format
VERSION .7
FIELDS x y z
SIZE 4 4 4
TYPE F F F
COUNT 1 1 1
WIDTH 1022
HEIGHT 1
VIEWPOINT 0 0 0 1 0 0 0
POINTS 1022
DATA ascii
1080.2 449.427 84.2097 
1077.41 467.449 86.7836 
1077.41 466.661 76.6281 
1077.41 465.124 96.4986 
1077.41 462.893 67.7751 
1077.41 460.078 104.092 
1077.41 456.79 61.773 
1077.41 453.19 108.253 
1077.41 449.423 59.6397 
1077.41 445.655 108.253 
1077.41 442.056 61.773 
1077.41 438.764 104.096 
1077.41 435.948 67.7789 
1077.41 433.718 96.5025 
1077.41 432.181 76.6281 
1077.41 431.393 86.7836 
1071.96 435.671 106.373 
1071.96 422.973 93.675 
1070.55 478.786 96.3659 
1070.55 466.088 109.064 
1063.44 479.472 88.4919 
1063.44 478.158 71.5659 
1063.44 475.592 104.692 
1063.44 471.879 56.8083 
1063.44 467.18 117.356 
1063.44 461.708 55.1391 
1063.44 455.698 124.282 
1063.44 449.423 52.9317 
1063.44 443.144 124.282 
1063.44 437.134 55.1391 
1063.44 431.666 117.356 
1063.44 426.967 56.8083 
1063.44 423.254 104.692 
1063.44 420.688 71.5619 
1063.44 419.369 88.4958 
1022.31 269.27 238.17 
1022.31 268.475 237.378 
1020.9 641.525 239.41 
1020.9 640.73 240.202 
965.218 396.687 93.5658 
965.206 397.529 70.8989 
965.19 499.296 93.5697 
965.175 498.454 70.9029 
965.175 399.222 102.793 
965.147 496.761 102.797 
965.062 405.981 63.0795 
965.031 490.002 63.0834 
964.921 414.436 104.353 
964.89 481.547 104.357 
964.75 424.588 59.1756 
964.734 425.418 104.357 
964.719 471.395 59.1795 
964.703 470.565 104.357 
954.602 268.802 238.638 
954.602 268.007 237.846 
953.194 641.993 239.878 
953.194 641.198 240.67 
924.716 400.006 86.4716 
923.772 400.002 93.5853 
923.496 498.411 81.7409 
922.556 498.411 88.8701 
922.458 373.517 86.4638 
921.511 373.517 93.5853 
921.238 524.896 81.7409 
920.297 524.896 88.8701 
920.2 347.036 86.4716 
919.256 347.032 93.5853 
918.979 551.384 81.7409 
918.039 551.384 88.8701 
870.491 341.736 86.4716 
869.547 341.736 93.593 
869.27 560.284 84.3774 
868.33 560.284 91.5065 
820.781 336.444 86.4638 
819.841 336.444 93.5814 
819.564 565.58 84.3774 
819.19 428.18 113.861 
819.19 415.485 101.167 
818.625 565.58 91.5065 
817.782 486.274 103.858 
817.782 473.579 116.552 
725.886 384.113 86.4638 
724.95 384.113 93.593 
724.67 517.907 84.3774 
723.73 517.907 91.5065 
723.632 357.629 86.4638 
722.692 357.617 93.5814 
722.412 544.392 84.3774 
721.472 544.392 91.5065 
720.879 697.475 144.433 
720.879 696.457 149.191 
720.879 696.457 139.679 
720.879 695.883 32.4957 
720.879 694.865 37.2537 
720.879 694.865 27.7416 
720.879 693.594 153.13 
720.879 693.594 135.74 
720.879 692.003 41.1927 
720.879 692.003 23.8026 
720.879 689.378 155.56 
720.879 689.378 133.311 
720.879 687.787 43.6223 
720.879 687.787 21.3729 
720.879 684.55 156.071 
720.879 684.55 132.8 
720.879 682.959 44.1333 
720.879 682.959 20.862 
720.879 679.917 154.566 
720.879 679.913 134.297 
720.879 678.326 42.6279 
720.879 678.322 22.3596 
720.879 676.298 151.309 
720.879 676.298 137.562 
720.879 674.706 39.3714 
720.879 674.706 25.6239 
720.879 674.316 146.859 
720.879 674.316 142.008 
720.879 672.725 34.9215 
720.879 672.725 30.0699 
720.879 230.305 146.629 
720.879 229.291 151.391 
720.879 229.291 141.883 
720.879 228.714 34.6914 
720.879 227.7 39.4532 
720.879 227.7 29.9451 
720.879 226.429 155.33 
720.879 226.429 137.94 
720.879 224.838 43.3923 
720.879 224.838 26.0022 
720.879 222.213 157.764 
720.879 222.213 135.51 
720.879 220.622 45.8259 
720.879 220.622 23.5725 
720.879 217.385 158.271 
720.879 217.385 134.999 
720.879 215.793 46.3329 
720.879 215.793 23.0616 
720.879 212.751 156.765 
720.879 212.748 136.501 
720.879 211.16 44.8275 
720.879 211.156 24.5631 
720.879 209.132 153.509 
720.879 209.132 139.761 
720.879 207.541 41.571 
720.879 207.541 27.8235 
720.879 207.151 149.059 
720.879 207.151 144.207 
720.879 205.56 37.1211 
720.879 205.56 32.2695 
705.556 331.14 86.4716 
704.608 331.144 93.5814 
704.335 570.877 84.3774 
703.395 570.877 91.5065 
696.52 219.927 86.4678 
695.576 219.931 93.597 
695.299 682.12 84.3774 
694.359 682.12 91.5065 
686.001 685.771 144.433 
686.001 684.179 32.4957 
686.001 218.605 146.629 
686.001 217.014 34.6914 
673.923 352.336 86.4678 
672.987 352.332 93.597 
672.706 549.688 84.3774 
671.766 549.688 91.5065 
637.805 219.931 86.4638 
636.861 219.931 93.597 
636.557 682.12 84.3774 
635.617 682.12 91.5065 
612.779 713.082 144.433 
612.779 711.491 32.4957 
612.779 710.719 155.537 
612.779 710.719 133.334 
612.779 709.128 43.599 
612.779 709.128 21.3963 
612.779 704.042 164.729 
612.779 704.042 124.142 
612.779 702.451 52.7913 
612.779 702.451 12.204 
612.779 694.202 170.407 
612.779 694.202 118.459 
612.779 692.611 58.4697 
612.779 692.611 6.52168 
612.779 682.912 171.597 
612.779 682.912 117.274 
612.779 681.321 59.6591 
612.779 681.321 5.33607 
612.779 672.109 168.087 
612.779 672.109 120.784 
612.779 670.518 56.1492 
612.779 670.518 8.84612 
612.779 663.669 160.49 
612.779 663.669 128.381 
612.779 662.078 48.552 
612.779 662.078 16.4433 
612.779 659.048 150.108 
612.779 659.048 138.759 
612.779 657.457 38.1702 
612.779 657.457 26.8212 
612.779 245.917 146.629 
612.779 244.326 34.6914 
612.779 243.55 157.736 
612.779 243.55 135.534 
612.779 241.959 45.7986 
612.779 241.959 23.5959 
612.779 236.877 166.929 
612.779 236.877 126.341 
612.779 235.286 54.9909 
612.779 235.286 14.4036 
612.779 227.037 172.607 
612.779 227.037 120.659 
612.779 225.446 60.6693 
612.779 225.446 8.72133 
612.779 215.747 173.797 
612.779 215.747 119.473 
612.779 214.155 61.8588 
612.779 214.155 7.53572 
612.779 204.944 170.287 
612.779 204.944 122.983 
612.779 203.352 58.3487 
612.779 203.352 11.0457 
612.779 196.504 162.689 
612.779 196.504 130.585 
612.779 194.913 50.7516 
612.779 194.913 18.6468 
612.779 191.883 152.308 
612.779 191.883 140.959 
612.779 190.291 40.3698 
612.779 190.291 29.0208 
603.325 726.042 143.63 
603.325 724.451 31.6923 
603.325 722.536 160.127 
603.325 722.536 127.137 
603.325 720.945 48.1893 
603.325 720.945 15.1992 
603.325 712.618 173.773 
603.325 712.618 113.487 
603.325 711.027 61.8354 
603.325 711.027 1.54921 
603.325 698.013 182.205 
603.325 698.013 105.055 
603.325 696.422 70.2671 
603.325 696.422 -6.8826 
603.325 681.239 183.972 
603.325 681.239 103.292 
603.325 679.648 72.0338 
603.325 679.648 -8.64539 
603.325 665.198 178.757 
603.325 665.194 108.503 
603.325 663.607 66.8196 
603.325 663.603 -3.435 
603.325 652.664 167.471 
603.325 652.664 119.789 
603.325 651.072 55.533 
603.325 651.072 7.85159 
603.325 645.8 152.058 
603.325 645.8 135.202 
603.325 644.208 40.1202 
603.325 644.208 23.2644 
603.325 258.877 145.83 
603.325 257.286 33.8919 
603.325 255.371 162.331 
603.325 255.371 129.337 
603.325 253.779 50.3928 
603.325 253.779 17.3988 
603.325 245.453 175.973 
603.325 245.453 115.687 
603.325 243.862 64.035 
603.325 243.862 3.74879 
603.325 230.847 184.405 
603.325 230.847 107.255 
603.325 229.256 72.4668 
603.325 229.256 -4.68301 
603.325 214.074 186.171 
603.325 214.074 105.492 
603.325 212.482 74.2335 
603.325 212.482 -6.4458 
603.325 198.033 180.957 
603.325 198.029 110.702 
603.325 196.442 69.0192 
603.325 196.438 -1.23541 
603.325 185.498 169.67 
603.325 185.498 121.989 
603.325 183.907 57.7326 
603.325 183.907 10.0512 
603.325 178.634 154.258 
603.325 178.634 137.402 
603.325 177.043 42.3197 
603.325 177.043 25.464 
602.639 722.852 143.63 
602.639 721.261 31.6923 
602.639 719.623 158.824 
602.639 719.623 128.436 
602.639 718.031 46.8867 
602.639 718.031 16.4979 
602.639 710.485 171.398 
602.639 710.485 115.862 
602.639 708.894 59.4603 
602.639 708.894 3.92429 
602.639 697.022 179.175 
602.639 697.022 108.085 
602.639 695.431 67.2369 
602.639 695.431 -3.85226 
602.639 681.574 180.793 
602.639 681.574 106.467 
602.639 679.983 68.8553 
602.639 679.983 -5.47081 
602.639 666.797 175.992 
602.639 666.797 111.272 
602.639 665.206 64.0545 
602.639 665.206 -0.66597 
602.639 655.245 165.595 
602.639 655.245 121.665 
602.639 653.654 53.6571 
602.639 653.654 9.72751 
602.639 648.927 151.395 
602.639 648.927 135.865 
602.639 647.336 39.4572 
602.639 647.336 23.9274 
602.639 255.687 145.83 
602.639 254.095 33.8919 
602.639 252.457 161.024 
602.639 252.457 130.635 
602.639 250.866 49.0863 
602.639 250.866 18.6975 
602.639 243.32 173.598 
602.639 243.32 118.062 
602.639 241.728 61.6598 
602.639 241.728 6.12392 
602.639 229.857 181.374 
602.639 229.857 110.285 
602.639 228.266 69.4364 
602.639 228.266 -1.65269 
602.639 214.409 182.993 
602.639 214.409 108.667 
602.639 212.818 71.055 
602.639 212.818 -3.27116 
602.639 199.632 178.196 
602.639 199.632 113.471 
602.639 198.041 66.2579 
602.639 198.041 1.53362 
602.639 188.08 167.794 
602.639 188.08 123.865 
602.639 186.489 55.8567 
602.639 186.489 11.9271 
602.639 181.762 153.595 
602.639 181.762 138.065 
602.639 180.171 41.6568 
602.639 180.171 26.127 
597.108 687.892 107.142 
597.108 687.892 69.3897 
597.108 681.473 107.142 
597.108 681.473 69.3897 
597.108 220.505 109.185 
597.108 220.505 71.4333 
597.108 214.085 109.185 
597.108 214.085 71.4333 
591.715 721.253 143.63 
591.715 719.662 31.6923 
591.715 718.16 158.177 
591.715 718.16 129.087 
591.715 716.569 46.2393 
591.715 716.569 17.1492 
591.715 709.416 170.212 
591.715 709.416 117.048 
591.715 707.825 58.2746 
591.715 707.825 5.10988 
591.715 696.531 177.65 
591.715 696.531 109.61 
591.715 694.94 65.7119 
591.715 694.94 -2.32741 
591.715 681.738 179.206 
591.715 681.738 108.054 
591.715 680.147 67.2681 
591.715 680.147 -3.88351 
591.715 667.597 174.612 
591.715 667.593 112.652 
591.715 666.005 62.6739 
591.715 666.002 0.714584 
591.715 656.54 164.655 
591.715 656.54 122.601 
591.715 654.949 52.7171 
591.715 654.949 10.6635 
591.715 650.487 151.063 
591.715 650.487 136.197 
591.715 648.896 39.1257 
591.715 648.896 24.2589 
591.715 254.088 145.83 
591.715 252.496 33.8919 
591.715 250.995 160.377 
591.715 250.995 131.287 
591.715 249.404 48.4389 
591.715 249.404 19.3488 
591.715 242.251 172.412 
591.715 242.251 119.247 
591.715 240.66 60.4742 
591.715 240.66 7.30952 
591.715 229.365 179.849 
591.715 229.365 111.81 
591.715 227.774 67.9116 
591.715 227.774 -0.127762 
591.715 214.573 181.405 
591.715 214.573 110.254 
591.715 212.982 69.4677 
591.715 212.982 -1.68387 
591.715 200.431 176.811 
591.715 200.427 114.852 
591.715 198.84 64.8735 
591.715 198.836 2.91423 
591.715 189.375 166.858 
591.715 189.375 124.805 
591.715 187.784 54.9207 
591.715 187.784 12.867 
591.715 183.322 153.263 
591.715 183.322 138.396 
591.715 181.731 41.3253 
591.715 181.731 26.4585 
590.346 325.832 86.4678 
589.414 325.836 93.597 
589.11 576.177 84.3774 
588.17 576.177 91.5065 
585.568 728.441 143.63 
585.568 726.849 31.6923 
585.568 724.724 161.098 
585.568 724.724 126.162 
585.568 723.133 49.1604 
585.568 723.133 14.2242 
585.568 714.221 175.552 
585.568 714.221 111.709 
585.568 712.63 63.6138 
585.568 712.63 -0.229172 
585.568 698.75 184.486 
585.568 698.75 102.778 
585.568 697.159 72.5487 
585.568 697.159 -9.1602 
585.568 680.989 186.351 
585.568 680.989 100.909 
585.568 679.398 74.4129 
585.568 679.398 -11.0283 
585.568 664.001 180.832 
585.568 664.001 106.428 
585.568 662.41 68.8944 
585.568 662.41 -5.50978 
585.568 650.725 168.879 
585.568 650.725 118.381 
585.568 649.134 56.9409 
585.568 649.134 6.44373 
585.568 643.456 152.557 
585.568 643.456 134.707 
585.568 641.864 40.6194 
585.568 641.864 22.7691 
585.568 261.275 145.83 
585.568 259.684 33.8919 
585.568 257.559 163.298 
585.568 257.559 128.362 
585.568 255.967 51.36 
585.568 255.967 16.4238 
585.568 247.056 177.751 
585.568 247.056 113.908 
585.568 245.465 65.8133 
585.568 245.465 1.97041 
585.568 231.585 186.686 
585.568 231.585 104.977 
585.568 229.993 74.7482 
585.568 229.993 -6.96062 
585.568 213.824 188.55 
585.568 213.824 103.109 
585.568 212.233 76.6124 
585.568 212.233 -8.82867 
585.568 196.836 183.032 
585.568 196.836 108.628 
585.568 195.244 71.094 
585.568 195.244 -3.3102 
585.568 183.56 171.078 
585.568 183.56 120.581 
585.568 181.969 59.1405 
585.568 181.969 8.64331 
585.568 176.29 154.757 
585.568 176.29 136.906 
585.568 174.699 42.819 
585.568 174.699 24.9687 
577.905 689.577 145.241 
577.905 689.577 143.63 
577.905 688.918 146.719 
577.905 688.918 142.148 
577.905 687.986 33.303 
577.905 687.986 31.6923 
577.905 687.713 147.811 
577.905 687.713 141.064 
577.905 687.327 34.7811 
577.905 687.327 30.2103 
577.905 686.168 148.31 
577.905 686.168 140.561 
577.905 686.122 35.873 
577.905 686.122 29.1261 
577.905 684.577 36.3723 
577.905 684.577 28.623 
577.905 684.562 148.138 
577.905 684.562 140.728 
577.905 683.162 147.331 
577.905 683.162 141.54 
577.905 682.97 36.2007 
577.905 682.97 28.7907 
577.905 682.206 146.017 
577.905 682.206 142.85 
577.905 681.871 144.433 
577.905 681.57 35.3934 
577.905 681.57 29.6019 
577.905 680.615 34.0791 
577.905 680.615 30.9084 
577.905 680.28 32.4957 
577.905 222.412 147.44 
577.905 222.412 145.83 
577.905 221.753 148.918 
577.905 221.753 144.348 
577.905 220.821 35.5025 
577.905 220.821 33.8919 
577.905 220.548 150.01 
577.905 220.548 143.263 
577.905 220.161 36.9807 
577.905 220.161 32.4099 
577.905 219.003 150.51 
577.905 219.003 142.76 
577.905 218.956 38.0727 
577.905 218.956 31.3257 
577.905 217.412 38.5719 
577.905 217.412 30.8226 
577.905 217.396 150.338 
577.905 217.396 142.928 
577.905 215.996 149.531 
577.905 215.996 143.739 
577.905 215.805 38.4003 
577.905 215.805 30.9903 
577.905 215.041 148.216 
577.905 215.041 145.046 
577.905 214.705 146.629 
577.905 214.405 37.593 
577.905 214.405 31.8015 
577.905 213.45 36.2787 
577.905 213.45 33.108 
577.905 213.114 34.6914 
572.285 103.388 86.4756 
571.907 721.253 143.63 
571.907 719.662 31.6923 
571.907 718.16 158.177 
571.907 718.16 129.087 
571.907 716.569 46.2393 
571.907 716.569 17.1492 
571.907 709.416 170.212 
571.907 709.416 117.048 
571.907 707.825 58.2746 
571.907 707.825 5.10988 
571.907 696.531 177.65 
571.907 696.531 109.61 
571.907 694.94 65.7119 
571.907 694.94 -2.32741 
571.907 681.738 179.206 
571.907 681.738 108.054 
571.907 680.147 67.2681 
571.907 680.147 -3.88351 
571.907 667.597 174.612 
571.907 667.593 112.652 
571.907 666.005 62.6739 
571.907 666.002 0.714584 
571.907 656.54 164.655 
571.907 656.54 122.601 
571.907 654.949 52.7171 
571.907 654.949 10.6635 
571.907 650.487 151.063 
571.907 650.487 136.197 
571.907 648.896 39.1257 
571.907 648.896 24.2589 
571.907 254.088 145.83 
571.907 252.496 33.8919 
571.907 250.995 160.377 
571.907 250.995 131.287 
571.907 249.404 48.4389 
571.907 249.404 19.3488 
571.907 242.251 172.412 
571.907 242.251 119.247 
571.907 240.66 60.4742 
571.907 240.66 7.30952 
571.907 229.365 179.849 
571.907 229.365 111.81 
571.907 227.774 67.9116 
571.907 227.774 -0.127762 
571.907 214.573 181.405 
571.907 214.573 110.254 
571.907 212.982 69.4677 
571.907 212.982 -1.68387 
571.907 200.431 176.811 
571.907 200.427 114.852 
571.907 198.84 64.8735 
571.907 198.836 2.91423 
571.907 189.375 166.858 
571.907 189.375 124.805 
571.907 187.784 54.9207 
571.907 187.784 12.867 
571.907 183.322 153.263 
571.907 183.322 138.396 
571.907 181.731 41.3253 
571.907 181.731 26.4585 
571.341 103.392 93.593 
571.037 798.66 84.3774 
570.097 798.66 91.5065 
566.766 650.487 151.063 
566.766 648.896 39.1257 
566.766 183.322 153.263 
566.766 181.731 41.3253 
563.081 713.082 144.433 
563.081 711.491 32.4957 
563.081 710.719 155.537 
563.081 710.719 133.334 
563.081 709.128 43.599 
563.081 709.128 21.3963 
563.081 704.042 164.729 
563.081 704.042 124.142 
563.081 702.451 52.7913 
563.081 702.451 12.204 
563.081 694.202 170.407 
563.081 694.202 118.459 
563.081 692.611 58.4697 
563.081 692.611 6.52168 
563.081 682.912 171.597 
563.081 682.912 117.274 
563.081 681.321 59.6591 
563.081 681.321 5.33607 
563.081 672.109 168.087 
563.081 672.109 120.784 
563.081 670.518 56.1492 
563.081 670.518 8.84612 
563.081 663.669 160.49 
563.081 663.669 128.381 
563.081 662.078 48.552 
563.081 662.078 16.4433 
563.081 659.048 150.108 
563.081 659.048 138.759 
563.081 657.457 38.1702 
563.081 657.457 26.8212 
563.081 245.917 146.629 
563.081 244.326 34.6914 
563.081 243.55 157.736 
563.081 243.55 135.534 
563.081 241.959 45.7986 
563.081 241.959 23.5959 
563.081 236.877 166.929 
563.081 236.877 126.341 
563.081 235.286 54.9909 
563.081 235.286 14.4036 
563.081 227.037 172.607 
563.081 227.037 120.659 
563.081 225.446 60.6693 
563.081 225.446 8.72133 
563.081 215.747 173.797 
563.081 215.747 119.473 
563.081 214.155 61.8588 
563.081 214.155 7.53572 
563.081 204.944 170.287 
563.081 204.944 122.983 
563.081 203.352 58.3487 
563.081 203.352 11.0457 
563.081 196.504 162.689 
563.081 196.504 130.585 
563.081 194.913 50.7516 
563.081 194.913 18.6468 
563.081 191.883 152.308 
563.081 191.883 140.959 
563.081 190.291 40.3698 
563.081 190.291 29.0208 
558.729 347.028 86.4638 
557.793 347.021 93.597 
557.477 554.988 84.3774 
556.537 554.988 91.5065 
548.686 728.441 143.63 
548.686 726.849 31.6923 
548.686 724.724 161.098 
548.686 724.724 126.162 
548.686 723.133 49.1604 
548.686 723.133 14.2242 
548.686 714.221 175.552 
548.686 714.221 111.709 
548.686 712.63 63.6138 
548.686 712.63 -0.229172 
548.686 698.75 184.486 
548.686 698.75 102.778 
548.686 697.159 72.5487 
548.686 697.159 -9.1602 
548.686 680.989 186.351 
548.686 680.989 100.909 
548.686 679.398 74.4129 
548.686 679.398 -11.0283 
548.686 664.001 180.832 
548.686 664.001 106.428 
548.686 662.41 68.8944 
548.686 662.41 -5.50978 
548.686 650.725 168.879 
548.686 650.725 118.381 
548.686 649.134 56.9409 
548.686 649.134 6.44373 
548.686 643.456 152.557 
548.686 643.456 134.707 
548.686 641.864 40.6194 
548.686 641.864 22.7691 
548.686 261.275 145.83 
548.686 259.684 33.8919 
548.686 257.559 163.298 
548.686 257.559 128.362 
548.686 255.967 51.36 
548.686 255.967 16.4238 
548.686 247.056 177.751 
548.686 247.056 113.908 
548.686 245.465 65.8133 
548.686 245.465 1.97041 
548.686 231.585 186.686 
548.686 231.585 104.977 
548.686 229.993 74.7482 
548.686 229.993 -6.96062 
548.686 213.824 188.55 
548.686 213.824 103.109 
548.686 212.233 76.6124 
548.686 212.233 -8.82867 
548.686 196.836 183.032 
548.686 196.836 108.628 
548.686 195.244 71.094 
548.686 195.244 -3.3102 
548.686 183.56 171.078 
548.686 183.56 120.581 
548.686 181.969 59.1405 
548.686 181.969 8.64331 
548.686 176.29 154.757 
548.686 176.29 136.906 
548.686 174.699 42.819 
548.686 174.699 24.9687 
545.27 721.253 143.63 
545.27 719.662 31.6923 
545.27 718.16 158.177 
545.27 718.16 129.087 
545.27 716.569 46.2393 
545.27 716.569 17.1492 
545.27 709.416 170.212 
545.27 709.416 117.048 
545.27 707.825 58.2746 
545.27 707.825 5.10988 
545.27 696.531 177.65 
545.27 696.531 109.61 
545.27 694.94 65.7119 
545.27 694.94 -2.32741 
545.27 681.738 179.206 
545.27 681.738 108.054 
545.27 680.147 67.2681 
545.27 680.147 -3.88351 
545.27 667.597 174.612 
545.27 667.593 112.652 
545.27 666.005 62.6739 
545.27 666.002 0.714584 
545.27 656.54 164.655 
545.27 656.54 122.601 
545.27 654.949 52.7171 
545.27 654.949 10.6635 
545.27 650.487 136.197 
545.27 648.896 24.2589 
545.27 254.088 145.83 
545.27 252.496 33.8919 
545.27 250.995 160.377 
545.27 250.995 131.287 
545.27 249.404 48.4389 
545.27 249.404 19.3488 
545.27 242.251 172.412 
545.27 242.251 119.247 
545.27 240.66 60.4742 
545.27 240.66 7.30952 
545.27 229.365 179.849 
545.27 229.365 111.81 
545.27 227.774 67.9116 
545.27 227.774 -0.127762 
545.27 214.573 181.405 
545.27 214.573 110.254 
545.27 212.982 69.4677 
545.27 212.982 -1.68387 
545.27 200.431 176.811 
545.27 200.427 114.852 
545.27 198.84 64.8735 
545.27 198.836 2.91423 
545.27 189.375 166.858 
545.27 189.375 124.805 
545.27 187.784 54.9207 
545.27 187.784 12.867 
545.27 183.322 138.396 
545.27 181.731 26.4585 
544.529 687.892 107.142 
544.529 687.892 69.3897 
544.529 681.473 107.142 
544.529 681.473 69.3897 
544.529 220.505 109.185 
544.529 220.505 71.4333 
544.529 214.085 109.185 
544.529 214.085 71.4333 
541.857 727.641 143.63 
541.857 726.05 31.6923 
541.857 723.991 160.774 
541.857 723.991 126.486 
541.857 722.399 48.8367 
541.857 722.399 14.5479 
541.857 713.687 174.959 
541.857 713.687 112.305 
541.857 712.096 63.021 
541.857 712.096 0.367538 
541.857 698.5 183.73 
541.857 698.5 103.534 
541.857 696.909 71.7921 
541.857 696.909 -8.40359 
541.857 681.075 185.559 
541.857 681.075 101.701 
541.857 679.484 73.6211 
541.857 679.484 -10.2366 
541.857 664.399 180.138 
541.857 664.399 107.122 
541.857 662.807 68.2001 
541.857 662.807 -4.81561 
541.857 651.373 168.407 
541.857 651.373 118.849 
541.857 649.781 56.469 
541.857 649.781 6.91171 
541.857 644.24 152.393 
541.857 644.24 134.871 
541.857 642.648 40.4556 
541.857 642.648 22.9329 
541.857 260.476 145.83 
541.857 258.885 33.8919 
541.857 256.825 162.974 
541.857 256.825 128.685 
541.857 255.234 51.0363 
541.857 255.234 16.7475 
541.857 246.522 177.162 
541.857 246.522 114.505 
541.857 244.93 65.2244 
541.857 244.93 2.56711 
541.857 231.335 185.929 
541.857 231.335 105.734 
541.857 229.744 73.9916 
541.857 229.744 -6.20403 
541.857 213.91 187.759 
541.857 213.91 103.901 
541.857 212.319 75.8208 
541.857 212.319 -8.03696 
541.857 197.233 182.338 
541.857 197.233 109.322 
541.857 195.642 70.3998 
541.857 195.642 -2.61597 
541.857 184.207 170.61 
541.857 184.207 121.053 
541.857 182.616 58.6725 
541.857 182.616 9.11522 
541.857 177.07 154.593 
541.857 177.07 137.07 
541.857 175.479 42.6552 
541.857 175.479 25.1325 
539.127 724.451 143.63 
539.127 722.86 31.6923 
539.127 721.077 159.48 
539.127 721.077 127.78 
539.127 719.486 47.5419 
539.127 719.486 15.8427 
539.127 711.553 172.588 
539.127 711.553 114.673 
539.127 709.962 60.6498 
539.127 709.962 2.73482 
539.127 697.517 180.692 
539.127 697.517 106.572 
539.127 695.926 68.7539 
539.127 695.926 -5.36548 
539.127 681.407 182.38 
539.127 681.407 104.88 
539.127 679.815 70.4427 
539.127 679.815 -7.05809 
539.127 665.994 177.377 
539.127 665.994 109.883 
539.127 664.403 65.439 
539.127 664.403 -2.05438 
539.127 653.954 166.531 
539.127 653.954 120.729 
539.127 652.363 54.5931 
539.127 652.363 8.79149 
539.127 647.364 151.726 
539.127 647.364 135.534 
539.127 645.772 39.7887 
539.127 645.772 23.5959 
539.127 257.286 145.83 
539.127 255.694 33.8919 
539.127 253.912 161.679 
539.127 253.912 129.98 
539.127 252.321 49.7415 
539.127 252.321 18.0423 
539.127 244.388 174.787 
539.127 244.388 116.872 
539.127 242.797 62.8494 
539.127 242.797 4.93439 
539.127 230.352 182.891 
539.127 230.352 108.772 
539.127 228.761 70.9536 
539.127 228.761 -3.16589 
539.127 214.241 184.58 
539.127 214.241 107.079 
539.127 212.65 72.6423 
539.127 212.65 -4.85852 
539.127 198.828 179.576 
539.127 198.828 112.083 
539.127 197.237 67.6385 
539.127 197.237 0.145203 
539.127 186.789 168.73 
539.127 186.789 122.929 
539.127 185.198 56.7927 
539.127 185.198 10.9911 
539.127 180.198 153.926 
539.127 180.198 137.733 
539.127 178.607 41.9883 
539.127 178.607 25.7955 
535.683 364.621 111.237 
535.652 532.879 111.241 
535.652 366.501 58.926 
535.621 530.995 58.9298 
535.586 370.272 132.535 
535.555 527.224 132.535 
535.321 385.365 51.4575 
535.29 512.135 51.4614 
534.997 404.214 136.134 
534.966 493.282 136.138 
534.595 426.865 45.8492 
534.568 428.737 136.138 
534.564 470.631 45.8492 
534.537 468.759 136.142 
527.1 368.209 86.4678 
526.156 368.217 93.597 
525.848 533.799 84.3774 
524.908 533.799 91.5065 
522.576 214.631 86.4716 
521.64 214.631 93.597 
521.328 687.417 84.3774 
520.388 687.417 91.5065 
513.539 103.388 86.4756 
512.596 103.388 93.5853 
512.291 798.66 84.3774 
511.351 798.66 91.5065 
454.805 103.388 86.4716 
453.865 103.388 93.593 
453.55 798.66 84.3774 
452.61 798.66 91.5065 
439.334 382.963 106.51 
439.311 514.533 106.514 
439.311 384.41 66.41 
439.287 513.086 66.414 
439.26 387.3 122.839 
439.237 510.197 122.839 
439.057 398.867 60.6848 
439.034 498.629 60.6888 
438.812 413.321 125.6 
438.788 484.176 125.604 
438.503 430.683 56.3871 
438.484 432.119 125.604 
438.476 466.813 56.3871 
438.46 465.378 125.604 
393.209 497.502 91.0619 
393.209 495.404 67.2407 
393.209 491.289 116.981 
393.209 485.354 60.8291 
393.209 477.842 137.234 
393.209 469.087 55.845 
393.209 459.473 148.326 
393.209 449.427 54.0822 
393.209 439.373 148.326 
393.209 429.755 55.845 
393.209 421.004 137.234 
393.209 413.488 60.8291 
393.209 407.552 116.981 
393.209 403.438 67.2407 
393.209 401.336 91.0619 
340.145 491.496 90.2117 
340.145 489.651 68.5043 
340.145 486.063 112.886 
340.145 480.857 62.5335 
340.145 474.289 130.612 
340.145 466.63 58.1732 
340.145 458.217 140.315 
340.145 449.423 56.6289 
340.145 440.628 140.315 
340.145 432.216 58.1732 
340.145 424.556 130.612 
340.145 417.985 62.5335 
340.145 412.782 112.89 
340.145 409.187 68.5043 
340.145 407.35 90.2117 
284.293 479.472 88.4919 
284.293 478.158 71.0394 
284.293 475.592 104.692 
284.293 471.879 63.6645 
284.293 467.18 117.356 
284.293 461.708 62.8298 
284.293 455.698 124.282 
284.293 449.423 61.7262 
284.293 443.144 124.282 
284.293 437.134 62.8298 
284.293 431.666 117.356 
284.293 426.967 63.6645 
284.293 423.254 104.692 
284.293 420.688 71.0394 
284.293 419.369 88.4958 
245.196 461.443 85.9256 
245.196 460.912 74.838 
245.196 459.887 92.4074 
245.196 458.401 71.8857 
245.196 456.521 97.4697 
245.196 454.333 69.885 
245.196 451.931 100.239 
245.196 449.427 69.1751 
245.196 446.911 100.239 
245.196 444.509 69.885 
245.196 442.317 97.4697 
245.196 440.441 71.8857 
245.196 438.951 92.4074 
245.196 437.93 74.838 
245.196 437.403 85.9256 
225.641 449.423 84.8336 
