# .PCD v.7 - Point Cloud Data file format
VERSION .7
FIELDS x y z
SIZE 4 4 4
TYPE F F F
COUNT 1 1 1
WIDTH 2299
HEIGHT 1
VIEWPOINT 0 0 0 1 0 0 0
POINTS 2299
DATA ascii
55.7508 28.2311 83.787 
55.6347 29.0885 74.8515 
55.8803 29.0473 75.9165 
55.5752 28.3524 75.714 
55.4843 28.4634 75.103 
55.9638 29 76.9819 
56 29 78 
56 29 79 
56 29 80 
56 29 81 
56 29 82 
55.9401 29.0418 82.9763 
55.6785 29.197 83.9276 
55.5024 28.905 84.5024 
55.5056 28.3918 84.5056 
55.9276 30 74.9638 
55.687 30.0085 73.8392 
55.5004 29.3951 74.1452 
56 30 76 
56 30 77 
56 30 78 
56 30 79 
56 30 80 
56 30 81 
56 30 82 
55.9165 30.0654 82.9527 
55.6798 30.3021 83.716 
55.6347 31.0885 71.8931 
55.8803 31.0473 72.9165 
55.5279 30.3997 72.6666 
55.4843 30.5157 72.0769 
55.9638 31 73.9819 
56 31 75 
56 31 76 
56 31 77 
56 31 78 
56 31 79 
56 31 80 
56 31 81 
56 31 82 
55.8691 31.1128 82.9053 
55.5641 31.3153 83.6003 
55.5909 32.1046 70.9 
55.9638 32 71.9819 
55.4016 31.4255 71.2047 
56.0835 31.9527 73.0654 
56.0947 31.9053 74.0947 
56.071 31.929 75.071 
56.0237 31.9763 76.0237 
56 32 77 
56 32 78 
56 32 79 
56 32 80 
56 32 81 
55.9638 32.0181 82 
55.7147 32.1608 82.9638 
55.4843 31.897 83.5366 
56.0473 32.9527 71.0473 
55.6186 33.0961 69.8638 
55.4016 32.4938 70.1946 
56.2853 32.9638 72.1608 
56.3202 32.716 73.3021 
56.284 32.716 74.284 
56.213 32.787 75.213 
56.1183 32.8817 76.1183 
56.0237 32.9763 77.0237 
56 33 78 
56 33 79 
56 33 80 
56 33 81 
55.8803 33.0835 81.9527 
55.5752 33.286 82.6476 
55.7348 34.0161 68.9378 
56.23 33.9638 70.1331 
55.5004 33.4473 69.1191 
56.3886 33.6476 71.2679 
56.4634 33.5366 71.8708 
56.3787 33.6213 75.3787 
56.2367 33.7633 76.2367 
56.1183 33.8817 77.1183 
56.0237 33.9763 78.0237 
56 34 79 
56 34 80 
55.9276 34.0362 81 
55.6347 34.1485 81.9115 
55.4843 33.897 82.5366 
55.9353 35.0199 68.0212 
56.3162 34.6476 69.2317 
55.5527 34.3951 68.1714 
56.4634 34.5366 69.8708 
56.3787 34.6213 76.3787 
56.213 34.787 77.213 
56.071 34.929 78.071 
56 35 79 
55.9638 35.0181 80 
55.687 35.1608 80.9915 
55.5004 34.8548 81.6049 
55.9884 35.7348 67.0484 
56.3428 35.5527 67.8025 
55.6049 35.3428 67.2237 
56.284 35.716 77.284 
56.0947 35.9053 78.0947 
56 36 79 
55.8803 36.0835 79.9527 
55.5279 36.2679 80.5891 
55.9115 36.3185 65.9293 
55.9353 37.0647 64.9987 
56.3428 36.6572 65.7502 
55.5062 36.5461 65.2208 
56.3314 36.6686 77.3314 
56.0947 36.9053 78.0947 
55.9276 37.0362 79 
55.5824 37.1724 79.8677 
55.3855 36.8476 80.4378 
55.9353 38.0423 64.01 
56.3428 37.6049 64.7763 
55.5062 37.4938 64.2469 
56.0223 37.9415 78.0947 
56.3314 37.6686 77.3314 
55.6432 38.1261 78.9477 
55.5004 37.8809 79.5527 
55.9353 39.0199 63.0212 
56.3428 38.6049 63.7763 
55.5062 38.4938 63.2469 
56.2952 38.6867 77.3314 
55.7594 39.0884 78.0639 
55.5004 38.8548 78.6049 
55.9361 39.8233 62.1107 
56.3428 39.5527 62.8025 
55.5062 39.4415 62.2731 
56.2005 39.7814 77.2367 
55.6114 40.2025 77.6365 
55.8843 40.3635 61.289 
55.8954 40.8317 60.7794 
55.4378 40.8215 77.4378 
55.886 40.9758 76.9084 
55.8954 41.3051 60.2528 
55.8954 41.8317 59.7794 
55.5062 41.7269 76.5585 
55.9361 41.9755 76.1799 
56.3428 41.1975 76.4473 
55.8954 42.3051 59.2528 
55.9316 42.8275 58.6847 
55.9638 43.0685 75.6224 
55.3951 43.4764 57.5171 
56 44.0635 57.0635 
56.3951 43.6572 57.7763 
56 43.3329 57.9177 
55.6049 43.5955 57.3195 
55.3951 43.4829 75.5236 
55.9776 43.9589 74.9141 
55.6049 43.6805 75.4045 
56.3428 43.2498 75.3428 
55.3951 44.3457 56.5432 
56.0161 44.8494 56.1769 
56.3951 44.5527 56.8286 
55.6049 44.4909 56.3718 
55.3951 44.4568 74.7327 
55.9353 44.9495 73.9844 
55.6049 44.6543 74.5352 
56.3428 44.2237 74.3951 
55.4938 45.1846 55.5883 
55.9527 45.3434 55.3574 
55.9316 45.8247 54.8448 
55.9361 45.8893 73.1767 
55.5062 45.7269 73.5585 
56.3428 45.1975 73.4473 
55.9316 46.3705 54.282 
56 46.884 53.8297 
55.8843 46.711 72.6365 
55.8954 47.2206 72.1683 
55.4938 47.2731 53.4415 
56 47.3393 53.3393 
56 47.8659 52.8659 
55.8954 47.7472 71.6949 
55.8954 48.3334 71.1725 
55.4938 48.2469 52.4938 
56 48.3393 52.3393 
56 48.8659 51.8659 
55.9723 49.0823 70.6948 
55.4938 49.2469 51.4938 
56 49.3393 51.3393 
56 49.8297 50.884 
55.3951 49.4829 70.5236 
55.9884 49.8508 70.1229 
55.6049 49.6543 70.4568 
56.3428 49.2237 70.3951 
55.4938 50.2469 50.4938 
56.0684 50.282 50.3705 
56.0684 50.8045 49.7844 
55.4938 50.4117 69.8154 
55.9527 50.6426 69.6566 
55.9316 51.1552 69.1753 
55.4938 51.257 49.4254 
56.0523 51.3551 48.966 
55.6049 51.8809 48.6049 
55.9316 51.7291 68.6949 
55.9316 52.2317 68.1975 
55.3951 52.1975 48.3951 
56 52.0635 48.0635 
55.5746 52.743 47.5062 
56 53.0277 67.6125 
55.6049 53.4473 67.0929 
55.3425 53.2478 47.0473 
55.4109 53.8337 46.4109 
55.6306 53.2369 46.6306 
56.0362 52.7771 47.1146 
56.0473 53.3504 46.4451 
55.9839 54.1769 45.8494 
55.3951 53.6572 66.7763 
56 53.9365 66.9365 
55.5746 54.4938 66.257 
55.6049 54.8286 45.5527 
55.2156 55.0684 65.8045 
56.0201 54.96 66.2767 
55.3951 55.1191 45.3951 
56 55.0075 45.0411 
55.5062 55.6747 44.5062 
55.2791 55.9316 65.7551 
56.0473 55.9819 66.0432 
55.4938 56.3153 43.5622 
56 55.7548 44.1285 
56.0684 56.2751 43.4178 
56.0684 56.8045 42.7844 
56.1107 57 66.2215 
55.4938 57.1785 42.4254 
56.0523 57.2721 41.9661 
55.5062 57.6747 41.5062 
55.9231 57.4843 66.5157 
56 58.1309 28.0766 
55.9316 58.3886 27.3001 
55.9316 58.7008 26.7209 
56 58 29 
56 58 30 
56 58 31 
56 58 32 
56 58 33 
56 58 34 
56 58 35 
56 58 36 
56 58 37 
56 58 38 
56 58 39 
56 57.9095 40.0181 
55.9477 57.6924 41.04 
56.1246 57.7509 67 
56.0181 57.9638 68 
56 58 69 
56 58 70 
55.9053 58.0947 70.9053 
55.6686 58.3314 71.6686 
56.3314 58.6686 72.3314 
56 59.0473 26.0473 
55.9316 59.3886 25.3001 
55.9316 59.7732 24.6847 
56.0947 58.9053 73.0947 
56 59 74 
56 59 75 
56 59 76 
56 59 77 
56 59 78 
56 59 79 
56 59 80 
55.9819 59.0362 81 
55.2186 59.3676 81.9527 
55.9346 59.1782 81.9053 
55.2047 59.5099 82.4378 
55.7683 59.4109 82.6003 
56.3021 59.6798 83.284 
55.3051 59.2166 89.0684 
55.4938 59.1685 88.4938 
55.8206 58.7321 89.0684 
56.0847 58.9751 88.0847 
55.5062 59.5962 87.5062 
55.2297 59.284 90 
55.7048 58.6505 90 
55.257 59.3997 90.9316 
55 60 91 
55.6617 58.716 91 
55.3153 59.5622 91.5062 
55.2545 59.9638 92 
55.6678 59 92 
55.6847 59.4378 92.4938 
55.9477 61.0438 23.3083 
56.3951 60.6572 23.8548 
55.9477 60.3014 23.9431 
55.5062 60.6145 23.3676 
56.0654 59.9165 84.0473 
56 60 85 
56 59.8984 85.9527 
56 59.6263 87 
55.284 60.284 93 
54.9588 60.979 93.0684 
55.6887 59.6003 93.0684 
55.3314 60.3314 94 
54.993 61.0473 94 
55.6686 59.6686 94 
55.3314 60.3314 95 
55.0404 61.0947 95 
55.6686 59.6686 95 
55.3112 60.3997 95.9316 
55.1358 61.1157 95.9316 
55.6617 59.716 96 
55.3153 60.5622 96.5062 
55.3168 61.0523 96.9477 
55.6678 60 97 
55.6747 60.5062 97.4938 
55.9477 62.0523 22.777 
54.8984 62 95.0473 
55.0543 62 96 
55.1428 62.0684 96.9316 
55.3253 61.4938 97.5062 
55.3168 62.0523 97.9477 
55.6832 60.9477 98.0523 
55.6747 61.5062 98.4938 
55.9616 63.0523 22.3445 
56.4938 62.5062 22.7531 
55.5062 62.5622 22.3153 
54.9053 63 95.0947 
55 63 96 
55.0543 63 97 
55.1358 63.0684 97.8843 
55.3153 62.4938 98.4378 
55.3113 63.0684 98.6003 
55.6678 62 99 
55.6617 63 99.284 
56.0685 63.9638 22.3776 
54.9165 64 95.0292 
55 64 96 
55 64 97 
55.1309 64 97.9234 
55.3886 63.9316 98.6999 
55.7008 63.9316 99.2791 
55.8893 65 22.7785 
56.1714 64.3951 22.5527 
55.8708 64.5366 22.4634 
54.9638 65 94.9819 
55 65 96 
55.0724 65 97.0362 
55.3376 64.9477 98.0622 
55.4938 64.5062 98.7531 
55.7147 65 98.9116 
55.5527 65.3951 98.1714 
56.1346 65.9115 23.3376 
54.9749 65.9527 93.0111 
55.0585 65.9053 94.0766 
55.0947 65.9053 95.0947 
55.1309 65.9053 96.1128 
55.3376 65.9115 97.1346 
55.4473 65.6049 97.8286 
55.6709 66.0523 97.8877 
55.5527 66.3951 97.1714 
56.2498 66.3428 23.6572 
55.9231 66.4843 23.5157 
56.0984 66.6986 24.0523 
55.7341 67.2478 24.716 
56 67.0835 83.0292 
56.0684 67.2992 82.2791 
56 67 84 
56 67 85 
55.929 67.071 85.929 
55.8107 67.1893 86.8107 
55.716 67.2478 87.7341 
55.1894 66.7744 89.2074 
55.6923 67.2715 88.7104 
55.2367 66.7633 90.2367 
55.6923 67.3077 89.6923 
55.2478 66.716 91.2659 
55.6686 67.3314 90.6686 
55.2952 66.6686 92.3132 
55.6686 67.3314 91.6686 
55.3314 66.6686 93.3314 
55.6686 67.3314 92.6686 
55.3314 66.6686 94.3314 
55.6686 67.3314 93.6686 
55.3314 66.6686 95.3314 
55.6686 67.3314 94.6686 
55.3997 66.6003 96.2972 
55.6798 67.284 95.6979 
55.4634 66.5366 96.8708 
55.7232 67 96.8616 
56.0947 67.9053 26.0947 
56.3153 67.5641 25.3997 
55.8754 68.2491 27 
56 68.0947 72.0947 
56 68.3314 71.3314 
56 68 73 
56 68 74 
56 68 75 
56 68 76 
56 68 77 
56 68 78 
56 68 79 
56 67.9638 80.0181 
55.3524 67.6003 81.2025 
56.0473 67.8218 80.9708 
55.5622 67.4901 81.7953 
56.1157 67.6003 81.7291 
55.3918 68.5056 27.4944 
55.905 68.5024 27.4976 
56.197 68.6785 28.0724 
56.1292 68.4634 27.5366 
56.0418 68.9401 29.0237 
56 69 30 
56 69 31 
56 69 32 
56 69 33 
56 69 34 
56 69 35 
56 69 36 
56 69 37 
56 69 38 
56 69 39 
55.9582 69.0599 39.9763 
55.8162 69.2019 40.8343 
55.6213 69.3787 41.6213 
56 69.3183 66.9031 
55.5746 69.5984 66.2047 
56 69.0362 67.9819 
56 69 69 
56 68.9053 69.9053 
56 68.6686 70.6686 
55.3077 69.6923 42.3077 
55.8343 70.1657 42.8343 
56.1601 69.8218 42.142 
55.2741 70.1046 65.6736 
56.0201 69.9877 66.2629 
55.426 70.574 43.426 
55.9582 71.0599 43.9763 
56.3133 70.7048 43.3314 
55.6213 71.3787 44.6213 
54.9226 70.9316 65.0029 
55.3717 71 65.6283 
56.1128 70.9819 66.032 
55.2604 71.7396 45.2604 
55.6686 72.3314 45.6686 
56.071 71.929 45.071 
55.3083 71.9316 65.7259 
56.1246 72.0362 66.1767 
55.213 72.787 46.213 
56 73 46 
55.8286 72.6049 66.4473 
55.213 73.787 47.213 
55.568 73.432 46.568 
56 74 47 
56.3208 73.5766 46.4234 
55.6686 74.3314 47.6686 
55.1975 73.3951 66.6049 
55.9333 73.1302 66.8698 
55.7763 73.6049 67.3428 
55.2604 74.7396 48.2604 
55.6213 75.3787 48.6213 
56.071 74.929 48.071 
55.1714 74.3951 67.5527 
55.8654 74.0885 67.6624 
56.1949 74.787 68.1768 
55.9763 76.0237 48.9763 
55.1292 75.4634 68.5366 
55.7028 75.3997 68.6003 
56 76 69 
55.497 76.503 49.497 
56.0654 76.9165 50.0473 
56.3626 76.5167 49.4471 
55.7396 77.2604 50.7396 
55.095 76.4976 69.5024 
55.6318 76.4707 69.5293 
56.3314 76.6686 69.3314 
55.929 77.071 69.929 
55.355 77.645 51.355 
55.8872 78.1309 51.9053 
56.2896 77.7285 51.3077 
55.0688 77.4976 70.4501 
55.5664 77.5181 70.4457 
56.2367 77.7633 70.2367 
55.8399 78.142 70.8218 
55.355 78.645 52.355 
55.858 79.142 52.858 
56.2554 78.6601 52.3761 
56.142 78.858 71.142 
55.8106 80.1893 53.8106 
56.2498 79.6476 53.3524 
55.6867 79.3314 71.7048 
56.0181 80 72.0362 
55.8106 81.1893 54.8106 
56.2498 80.6476 54.3524 
55.1211 80.4976 72.5547 
55.6499 80.4707 72.5655 
56.3077 80.6923 72.3077 
55.929 81.071 72.929 
55.8106 82.1893 55.8106 
56.2498 81.6476 55.3524 
55.095 81.4976 73.5024 
55.6082 81.4944 73.5056 
56.2604 81.7397 73.2603 
55.929 82.071 73.929 
55.9116 83.1405 57.0724 
56.2317 82.5891 56.3997 
55.095 82.4976 74.5024 
55.929 83.071 74.929 
55.6082 82.4944 74.5056 
56.2604 82.7397 74.2603 
56.0081 83.9284 58.0716 
56.1714 83.4473 57.6049 
55.8447 83.5889 57.4634 
55.0688 83.4976 75.4501 
55.5664 83.5181 75.4457 
56.2367 83.7633 75.2367 
55.8162 84.1657 75.7981 
55.8708 84.5366 58.4634 
56.0081 84.9284 59.0716 
56.1975 84.3951 58.6049 
56.0473 84.9527 76.0473 
55.8708 85.5366 59.4634 
55.9745 85.9284 60.0716 
56.1975 85.3951 59.6049 
55.8107 86.1893 76.8107 
55.5503 85.4497 76.5503 
56.213 85.787 76.213 
55.9409 86.9284 61.0716 
56.1191 86.3951 60.6049 
55.8708 86.5366 60.4634 
56.355 86.645 76.355 
56 87 77 
56.0292 87.6815 62.0885 
56.1452 87.3428 61.6049 
55.897 87.4843 61.4634 
55.8377 88.2375 62.9477 
55.8343 88.1657 77.8343 
55.6213 87.3787 77.6213 
56.1657 87.8343 77.1657 
56.093 88.4473 63.6049 
55.8025 88.6049 63.3951 
55.9228 88.9353 64.0423 
56 89 78 
56.3314 88.6686 77.3314 
55.6923 89.3077 78.6923 
55.4556 88.5444 78.4556 
55.9228 89.9577 65.0647 
56.1191 89.3951 64.6049 
55.8708 89.5366 64.4634 
56.426 89.574 77.426 
56.1309 89.8872 78.0947 
55.8468 90.1713 78.8107 
55.9552 90.9776 66.0224 
56.1191 90.3951 65.6049 
55.8286 90.6049 65.4473 
56.231 90.8935 77.9819 
55.9179 91.1002 78.8817 
55.5976 90.4024 79.5976 
55.7633 91.2367 79.7633 
55.8286 91.5527 66.3951 
55.9353 91.8929 67.0847 
56.1191 91.3951 66.6049 
56.1197 91.9165 78.0473 
56.3886 91.7321 77.3524 
56.4634 91.1292 77.4634 
55.9763 92.0237 78.9763 
55.8817 92.1183 79.8817 
55.7633 92.2367 80.7633 
55.5976 91.4024 80.5976 
55.8215 92.4378 67.5622 
55.7452 92.7048 68.0473 
56.1824 92.2367 68 
55.9134 93.0354 68.9577 
56.1685 92.4938 68.5062 
56.2768 92.8616 77 
56.0362 92.9819 78 
56 93 79 
55.9763 93.0237 79.9763 
55.8817 93.1183 80.8817 
55.5503 92.4497 81.5503 
55.7396 93.2603 81.7396 
55.9452 93.9577 70.0423 
56.1191 93.3951 69.6049 
55.8025 93.6049 69.3951 
56.2853 93.9116 76 
56.0724 93.9638 77 
56.4473 93.1714 76.3951 
56 94 78 
56 94 79 
56 94 80 
55.9763 94.0237 80.9763 
55.858 94.142 81.858 
55.6213 94.3787 82.6213 
55.4556 93.5444 82.4556 
55.743 94.5746 70.4938 
55.6726 95.0201 71.0523 
56.1955 94.2156 71.0684 
55.9519 95.0263 72.0684 
56.2771 94.3314 72 
56.0404 95.0947 73 
56.3314 94.3314 73 
56.0947 95.0947 74 
56.3314 94.3314 74 
56.0835 95.0292 75 
56.2992 94.2791 74.9316 
56.0362 94.9819 76 
56 95 77 
56 95 78 
56 95 79 
56 95 80 
56 95 81 
55.9053 95.0947 81.9053 
55.716 95.284 82.716 
55.5962 95.5062 71.4938 
55.6002 95.9477 72.0523 
55.8572 95.9316 73.0684 
55.9457 96 74 
56 96 75 
56 96 76 
56 96 77 
56 96 78 
56 96 79 
56 96 80 
56 96 81 
55.929 96.071 81.929 
55.787 96.213 82.787 
55.5962 96.5062 72.4938 
55.6002 96.9477 73.0523 
55.8572 96.9316 74.0684 
55.9457 97 75 
56 97 76 
56 97 77 
56 97 78 
56 97 79 
56 97 80 
56 97 81 
55.9763 97.0237 81.9763 
55.858 97.142 82.858 
55.5503 96.4497 83.5503 
55.6923 97.3077 83.6923 
55.614 97.92 74.0523 
55.5962 97.5062 73.4938 
55.8642 97.8843 75.0684 
55.8984 97.9527 76 
55.9457 98 77 
56 98 78 
56 98 79 
56 98 80 
56 98 81 
56 98 82 
55.929 98.071 82.929 
55.787 98.213 83.787 
55.6324 98.3855 74.4938 
55.5802 98.6003 75.0684 
55.5763 98.9915 76 
55.8572 98.9316 77.0684 
55.9457 99 78 
56 99 79 
56 99 80 
56 99 81 
56 99 82 
55.9763 99.0237 82.9763 
55.8218 99.1601 83.858 
55.574 98.426 84.574 
55.5766 99.3208 84.5766 
55.5962 99.5062 76.4938 
55.6002 99.9477 77.0523 
55.8642 99.8843 78.0684 
55.8984 99.9527 79 
55.9457 100 80 
56 100 81 
56 100 82 
55.9638 100.018 83 
55.7147 100.161 83.9638 
55.5366 99.8708 84.5366 
55.6063 100.438 77.4938 
55.6275 100.648 78.0684 
55.6678 101 79 
55.8642 100.884 80.0684 
55.8984 100.953 81 
55.9095 101.018 82 
55.8329 101.036 82.9527 
55.6003 101.203 83.6476 
55.6847 101.438 79.4938 
55.6818 101.648 80.0684 
55.6401 102.014 81 
55.6747 102.022 82.0523 
55.6324 101.781 82.9527 
55.4901 101.795 83.4378 
55.602 102.483 81.3951 
55.5352 102.654 81.6049 
56.8691 34.0947 72.8872 
56.6003 33.3997 72.7028 
56.7147 34.0362 71.8392 
56.5366 33.4634 72.1292 
56.858 34.142 73.858 
56.645 33.355 73.645 
56.7633 34.2367 74.7633 
56.574 33.426 74.574 
56.7147 35.0362 69.8392 
56.8803 35.0473 70.9165 
56.6114 34.3524 70.7321 
56.5366 34.4634 70.1292 
56.9638 35 71.9819 
57 35 73 
56.9763 35.0237 73.9763 
56.8817 35.1183 74.8817 
56.7633 35.2367 75.7633 
56.6213 34.3787 75.6213 
56.6785 36.0447 67.8169 
56.8803 36.0473 68.9165 
56.5752 35.3524 68.714 
56.4843 35.4634 68.103 
56.9638 36 69.9819 
57 36 71 
57 36 72 
57 36 73 
57 36 74 
56.9763 36.0237 74.9763 
56.858 36.142 75.858 
56.574 35.426 76.574 
56.645 36.355 76.645 
56.8803 37.0473 66.9165 
56.5279 36.3997 66.6666 
56.6347 37.0885 65.8515 
56.4843 36.5157 66.0769 
56.9638 37 67.9819 
57 37 69 
57 37 70 
57 37 71 
57 37 72 
57 37 73 
57 37 74 
57 37 75 
56.9053 37.0947 75.9053 
56.6686 37.3314 76.6686 
56.6432 38.0523 64.8739 
56.9276 38 65.9638 
56.5004 37.3951 65.1452 
57 38 67 
57 38 68 
57 38 69 
57 38 70 
57 38 71 
57 38 72 
57 38 73 
57 38 74 
57 38 75 
56.9053 38.0947 75.9053 
56.6686 38.3314 76.6686 
56.9276 39 64.9638 
56.6432 39.0523 63.8739 
56.5004 38.3951 64.1452 
57 39 66 
57 39 67 
57 39 68 
57 39 69 
57 39 70 
57 39 71 
57 39 72 
57 39 73 
57 39 74 
57 39 75 
56.9053 39.0947 75.9053 
56.6686 39.3314 76.6686 
56.7147 40.0085 62.8531 
57.0111 39.9527 64.0292 
56.5004 39.3951 63.1452 
57.0947 39.9053 65.0947 
57.0947 39.9053 66.0947 
57.0947 39.9053 67.0947 
57.071 39.929 68.071 
57.0237 39.9763 69.0237 
57 40 70 
57 40 71 
57 40 72 
57 40 73 
57 40 74 
57 40 75 
56.8691 40.1128 75.9053 
56.5641 40.3153 76.6003 
56.6101 41.1408 60.8915 
57 41 62 
56.5279 40.4109 61.7321 
56.3855 40.5622 61.1524 
57.2577 40.9638 63.1469 
57.3202 40.716 64.3021 
57.3314 40.6686 65.3314 
57.3314 40.6686 66.3314 
57.284 40.716 67.284 
57.213 40.787 68.213 
57.1183 40.8817 69.1183 
57.0237 40.9763 70.0237 
57 41 71 
57 41 72 
57 41 73 
57 41 74 
56.9638 41.0181 75 
56.6785 41.1831 75.9553 
56.4843 40.897 76.5366 
56.6825 42.0684 59.9639 
57.23 41.9638 61.1331 
56.4016 41.4938 60.1946 
57.3886 41.6476 62.2679 
57.4634 41.5366 62.8708 
57.2367 41.7633 69.2367 
57.3787 41.6213 68.3787 
57.1183 41.8817 70.1183 
57.0237 41.9763 71.0237 
57 42 72 
57 42 73 
57 42 74 
56.8803 42.0835 74.9527 
56.5279 42.3334 75.6003 
57.3162 42.6476 60.2317 
56.8929 43.0778 58.9906 
56.4539 42.4938 59.2208 
57.4634 42.5366 60.8708 
57.3787 42.6213 69.3787 
57.213 42.787 70.213 
57.071 42.929 71.071 
57 43 72 
57 43 73 
56.9276 43.0362 74 
56.6347 43.1485 74.9115 
56.4843 42.9231 75.4843 
56.9776 44 57.9888 
57.3428 43.6049 58.7763 
56.6049 43.4473 58.1714 
57.284 43.716 70.284 
57.0947 43.9053 71.0947 
57 44 72 
56.9276 44.0362 73 
56.6432 44.1261 73.9477 
56.5004 43.8548 74.6049 
57.0199 44.9353 56.9788 
57.3428 44.6049 57.7763 
56.6049 44.3951 57.1975 
57.3314 44.6686 70.3314 
57.0947 44.9053 71.0947 
56.9638 45.0181 72 
56.687 45.1608 72.9915 
56.5004 44.8548 73.6049 
56.886 46.114 55.013 
57.2689 45.6949 56.1844 
56.6476 45.3635 55.8156 
56.4378 45.5622 55.1785 
57.4111 45.5366 56.8447 
57.0947 45.9053 71.0947 
57.3314 45.6686 70.3314 
56.8803 46.0835 71.9527 
56.5279 46.2679 72.5891 
56.9353 47.0423 54.01 
57.3428 46.6049 54.7763 
56.5062 46.4938 54.2469 
57.3202 46.6979 70.284 
57.0111 46.9708 71.0473 
56.5824 47.1223 71.8592 
56.3855 46.8476 72.4378 
56.9353 48.0423 53.01 
57.3428 47.6049 53.7763 
56.5062 47.4938 53.2469 
57.23 47.8669 70.0362 
56.6186 48.1362 70.9039 
56.4016 47.8054 71.5062 
56.9353 49.0199 52.0212 
57.3428 48.6049 52.7763 
56.5062 48.4938 52.2469 
57.3635 48.7209 69.3997 
56.7871 49.0745 70.0639 
57.4634 48.1292 69.4634 
56.5004 48.8809 70.5527 
56.9638 49.8233 51.1246 
57.3951 49.5527 51.8286 
56.5062 49.4415 51.2731 
57.2005 49.7814 69.2367 
56.6114 50.2025 69.6365 
56.8843 50.3635 50.289 
56.8954 50.8275 49.6666 
56.4378 50.8215 69.4378 
56.886 50.9758 68.9084 
56.3951 51.4764 48.5171 
57 52.0859 48.0523 
57.3951 51.6572 48.7763 
56.9723 51.3329 48.9038 
56.6049 51.5955 48.3195 
56.5062 51.7269 68.5585 
56.9361 51.9755 68.1799 
57.3428 51.1975 68.4473 
56.3685 51.3685 96 
56.172 52.0976 95.9316 
56.2938 51.9617 95 
56.4938 51.2469 95.4938 
56.6939 50.7683 96.0684 
56.7338 51.0245 95 
56.5062 51.7531 94.5062 
56.3153 51.5622 96.5062 
56.3168 52.0523 96.9477 
56.6678 51 97 
56.6747 51.5062 97.4938 
56.3951 52.2673 47.5432 
56.9577 53.038 47.0505 
57.3951 52.6049 47.8025 
56.6049 52.4648 47.3457 
56.9638 53.0685 67.6224 
56.3676 52.2186 94.0473 
56.1671 52.9638 94.0473 
56.4359 52.7794 93.3524 
56.5622 52.1785 93.5622 
56.716 51.716 94 
57.1002 51.9906 93.0847 
56.6838 53.2317 92.6476 
56.0362 52.9819 95 
56.0543 53 96 
56.1428 53.0684 96.9316 
56.3253 52.4938 97.5062 
56.3168 53.0523 97.9477 
56.6832 51.9477 98.0523 
56.6747 52.5062 98.4938 
57 54.0747 46.0411 
57.3951 53.6049 46.8025 
56.5062 53.5883 46.263 
56.3951 53.4829 67.5236 
56.9776 53.9477 66.9365 
56.6049 53.6805 67.4045 
57.3428 53.2498 67.3428 
56.0362 53.9819 94 
56.2768 53.8616 93 
56.5366 53.8708 92.5366 
56 54 95 
56 54 96 
56.0543 54 97 
56.1428 54.0684 97.9316 
56.3253 53.4938 98.5062 
56.3168 54.0523 98.9477 
56.6832 52.9477 99.0523 
56.6747 53.5062 99.4938 
56.3951 54.3718 45.4909 
57 55.0411 45.0747 
57.3951 54.6049 45.8025 
56.6049 54.5432 45.3457 
56.3951 54.4568 66.7327 
56.9361 54.9255 66.2545 
56.6049 54.6282 66.5875 
57.3428 54.1975 66.4473 
56.0724 54.9638 93 
56.3376 54.8654 92.0885 
56.4473 54.1714 92.3951 
56.7539 54.0707 91.9477 
56.6049 54.8025 91.6049 
56 55 94 
56 55 95 
56 55 96 
56 55 97 
56.0543 55 98 
56.1358 55.0684 98.8843 
56.3153 54.4938 99.4378 
56.3113 55.0684 99.6003 
56.6678 54 100 
56.6617 55 100.284 
56.3951 55.2673 44.5432 
57 55.7817 44.197 
57.3951 55.5004 44.8548 
56.6049 55.4125 44.3718 
56.9471 56.0529 66.0014 
56.1197 55.9165 92.0473 
56.4248 55.714 91.3524 
56.5157 55.103 91.4634 
57.0785 54.9445 91.0716 
56.7311 56.1844 90.6949 
56 56 93 
56 56 94 
56 56 95 
56 56 96 
56 56 97 
56 56 98 
56.0947 56 98.9053 
56.3314 56 99.6686 
56.6686 56 100.331 
56.9316 56.3524 43.3182 
56.9316 56.8275 42.6847 
57.0891 56.929 66.1072 
56.0362 56.9819 92 
56.2768 56.8616 91 
56.5889 56.8447 90.5366 
56 57 93 
56 57 94 
56 57 95 
56 57 96 
56 57 97 
56 57 98 
56.0947 57 98.9053 
56.3314 57 99.6686 
56.6686 57 100.331 
56.3951 57.398 41.5171 
57 57.3052 41.9315 
57 57.7093 41.1246 
57.3951 57.5527 41.8286 
56.6049 57.4648 41.3457 
56.1473 57.4453 66.5547 
57.1838 57.7981 67.1657 
56.6917 57.4109 66.5891 
57.4497 57.5503 66.4497 
55.9777 57.8691 91 
56.2406 57.8254 90 
56.4996 57.1452 90.3951 
56.9801 56.9452 89.9353 
56.6268 57.7169 89.5062 
55.8984 57.9527 92 
55.9457 58 93 
56 58 94 
56 58 95 
56 58 96 
56 58 97 
56 58 98 
56.0947 58 98.9053 
56.3314 58 99.6686 
56.6686 58 100.331 
56.9477 58.3376 27.9378 
57 58.77 27.0607 
57.3951 58.5527 27.8286 
56.5062 58.4938 27.2469 
57 58.0724 28.9638 
57 58 30 
57 58 31 
57 58 32 
57 58 33 
57 58 34 
57 58 35 
57 58 36 
57 58 37 
57 58 38 
57 58 39 
57 57.9638 40.0181 
57.0418 57.9401 68.0237 
56.9763 58.0237 68.9763 
56.929 58.071 69.929 
56.8343 58.1657 70.8343 
56.645 58.355 71.645 
57.284 58.716 72.284 
56.3202 58.2116 89 
56.5622 58.3052 88.5622 
57.0885 57.6748 89.08 
57.0684 58.2639 88.3524 
57.0684 58.7975 87.8317 
55.8642 58.8843 93.0684 
55.9053 58.9053 94 
55.9053 58.9053 95 
55.9053 58.9053 96 
55.8984 58.9527 97 
55.9457 59 98 
56.0947 59 98.9053 
56.3383 59 99.716 
56.6887 58.9316 100.4 
56.9477 59.3376 25.9378 
56.9577 60.0578 24.9695 
57.3951 59.6572 25.7763 
56.5062 59.5461 25.2208 
57.0947 58.9053 73.0947 
57 59 74 
57 59 75 
57 59 76 
57 59 77 
57 59 78 
57 59 79 
57 59 80 
57 59 81 
56.9053 59.0947 81.9053 
56.6686 59.3314 82.6686 
57.3314 59.6686 83.3314 
56.4938 59.1685 87.4938 
57.0684 59.2166 87.3051 
57 59.6617 86.716 
55.8572 59.9316 98.0684 
56.0473 60 98.9527 
56.3322 60 100 
56.6847 59.5062 100.562 
57 61 24.0672 
57.3951 60.6049 24.8025 
56.6049 60.4473 24.1714 
57.0947 59.9053 84.0947 
57 60 85 
57 59.9053 85.9053 
55.9115 60.9316 99.0684 
56.0885 61.0684 99.9316 
56.3253 60.4938 100.506 
56.3583 61.0523 100.948 
56.7556 59.9477 100.98 
56.8215 60.5062 101.425 
56.9723 62 23.2768 
57.3428 61.6049 23.8548 
56.5062 61.4938 23.3253 
55.9527 62 100.047 
56.1358 62.0684 100.884 
56.3937 61.4938 101.438 
56.3655 62.0684 101.6 
57.0224 61 101.978 
56.7975 62.0684 102.168 
56.8715 63 22.7963 
55.9053 63 100.095 
56.0947 63 100.905 
56.3314 63 101.669 
56.7633 63 102.237 
56.6543 63.6049 22.4648 
56.8169 64 22.8094 
56.4829 63.3951 22.398 
55.9165 64 100.029 
56.0947 64 100.905 
56.3314 64 101.669 
56.7633 64 102.237 
57.0069 64.9477 23.3099 
55.9638 65 99.9819 
56.1309 65 100.923 
56.3886 64.9316 101.7 
56.8317 64.9316 102.202 
56.8548 65.6049 23.4996 
56.9888 65.9776 24.0224 
57.1452 65.3951 23.6572 
55.9276 66 98.9638 
56.0724 66 100.036 
56.3653 65.9477 101.076 
56.5461 65.5062 101.779 
57.0293 66 101.937 
56.6049 66.3951 101.198 
56.8286 66.5527 24.3951 
56.99 66.9353 25.0423 
57.1975 66.3951 24.6049 
57 67.0947 83.0947 
57 67.3314 82.3314 
57 67 84 
57 67 85 
56.9053 67.0947 85.9053 
56.716 67.284 86.716 
55.9276 67 97.9638 
56.0362 67 99.0181 
56.2853 67 100.088 
56.4473 66.6049 100.829 
56.7263 67.0523 100.915 
56.5062 67.4938 100.247 
57.1485 67.6347 26.0885 
57.2237 67.3428 25.6049 
56.897 67.4843 25.4634 
56.9527 68.0473 26.9527 
56.7321 68.3886 27.6476 
57 68.0947 72.0947 
57 68.3383 71.284 
57 68 73 
57 68 74 
57 68 75 
57 68 76 
57 68 77 
57 68 78 
57 68 79 
57 68 80 
57 67.9053 80.9053 
57 67.6686 81.6686 
56.2367 67.7633 88.2367 
56.4497 67.5503 87.4497 
56.9527 68.0473 87.9527 
57.284 67.716 87.284 
56.1183 67.8817 89.1184 
56.6923 68.3077 88.6923 
56.0237 67.9763 90.0237 
55.929 68.071 90.929 
55.9053 68.0947 91.9053 
55.9053 68.0947 92.9053 
55.9053 68.0947 93.9053 
55.9053 68.0947 94.9053 
55.9165 68.0473 95.9346 
55.9638 68 96.9819 
56 68 98 
56.0835 68 98.9708 
56.2992 68.0684 99.7209 
56.6114 68.0684 100.3 
57.0362 68.8329 29.0473 
57.2025 68.6003 28.3524 
57.0181 68.9638 30 
57 69 31 
57 69 32 
57 69 33 
57 69 34 
57 69 35 
57 69 36 
57 69 37 
57 69 38 
57 69 39 
56.9819 69.0362 40 
56.8978 69.2406 41.0362 
57 69.0362 67.9819 
57.0523 69.3353 66.9877 
56.9527 68.8984 69 
56.8843 68.8711 69.8843 
56.9316 68.6888 70.6003 
56.2367 68.7633 90.2367 
56.4024 68.5976 89.4024 
56.7396 69.2604 89.7396 
57.0237 68.9763 89.0237 
56.1183 68.8817 91.1183 
56.0237 68.9763 92.0237 
56 69 93 
56 69 94 
56 69 95 
56 69 96 
56 69 97 
56 69 98 
56.0947 69 98.9053 
56.3314 69 99.6686 
56.6686 69 100.331 
56.3918 69.5056 41.4944 
56.905 69.5024 41.4976 
57.1208 69.6901 42.0885 
57.1714 69.4473 41.6049 
56.7577 70.2242 42.7396 
56.3951 69.5875 66.7066 
56.9638 69.9947 66.2545 
56.6049 69.7066 66.5875 
57.4938 69.3776 66.5461 
56.213 69.787 91.213 
56.4024 69.5976 90.4024 
56.645 70.355 90.645 
56.9763 70.0237 89.9763 
56.071 69.929 92.071 
56 70 93 
56 70 94 
56 70 95 
56 70 96 
56 70 97 
56 70 98 
56.0947 70 98.9053 
56.3314 70 99.6686 
56.6686 70 100.331 
56.984 71.1405 44.1086 
57.2972 70.6003 43.3997 
56.9471 71.0529 66.0014 
56.142 70.858 92.142 
56.3077 70.6923 91.3077 
56.8343 71.1657 90.8343 
56.0237 70.9763 93.0237 
56 71 94 
56 71 95 
56 71 96 
56 71 97 
56 71 98 
56.0947 71 98.9053 
56.3314 71 99.6686 
56.6686 71 100.331 
56.3501 71.5655 44.4707 
56.8789 71.5547 44.4976 
57.0555 71.8922 45.1302 
57.1452 71.4996 44.6049 
57.0891 71.929 66.1072 
56.2367 71.7633 92.2367 
56.4497 71.5503 91.4497 
56.6923 72.3077 91.6923 
57.0237 71.9763 91.0237 
56.1183 71.8817 93.1183 
56.0237 71.9763 94.0237 
56 72 95 
56 72 96 
56 72 97 
56 72 98 
56.1309 72 98.9234 
56.3886 71.9316 99.6999 
56.7008 71.9316 100.279 
56.3682 72.5293 45.4707 
57.0374 72.8991 46.1009 
57.1975 72.3951 45.6049 
56.905 72.5024 45.4976 
56.1211 72.4976 66.5547 
57.3077 72.6923 66.3077 
56.929 73.071 66.929 
56.6499 72.4707 66.5655 
56.2367 72.7633 93.2367 
56.3787 72.6213 92.3787 
56.645 73.355 92.645 
56.9053 73.0947 91.9053 
56.1183 72.8817 94.1183 
56.0237 72.9763 95.0237 
56 73 96 
56 73 97 
56.0724 73 98.0362 
56.3376 72.9477 99.0622 
56.4938 72.5062 99.7531 
56.7147 73 99.9116 
56.5527 73.3951 99.1714 
57.0374 73.8991 47.1009 
57.1975 73.3951 46.6049 
56.8708 73.5366 46.4634 
56.0688 73.4976 67.4501 
56.8162 74.1657 67.7981 
56.5664 73.5181 67.4457 
57.2367 73.7633 67.2367 
56.2367 73.7633 94.2367 
56.3787 73.6213 93.3787 
56.645 74.355 93.645 
56.8817 74.1183 92.8817 
56.142 73.858 95.142 
56.0947 73.9053 96.0947 
56.1309 73.9053 97.1128 
56.3376 73.9115 98.1346 
56.4473 73.6049 98.8286 
56.6709 74.0523 98.8877 
56.5527 74.3951 98.1714 
56.3682 74.5293 47.4707 
57.0667 74.8698 48.1302 
57.1975 74.3951 47.6049 
56.905 74.5024 47.4976 
57.0473 74.9527 68.0473 
56.355 74.645 95.355 
56.426 74.574 94.426 
56.7396 75.2604 94.7396 
56.9053 75.0947 93.9053 
56.3314 74.6686 96.3314 
56.6686 75.3314 95.6686 
56.3997 74.6003 97.2972 
56.6798 75.284 96.6979 
56.4634 74.5366 97.8708 
56.7232 75 97.8616 
56.3682 75.5293 48.4707 
57.0374 75.8991 49.1009 
57.1975 75.3951 48.6049 
56.905 75.5024 48.4976 
57.213 75.787 68.213 
56.8107 76.1893 68.8107 
56.5503 75.4497 68.5503 
56.897 76.4843 49.4634 
57.0569 76.6986 50.0523 
57.2237 76.3428 49.6049 
56.6798 77.2478 50.716 
57 77 69 
57.355 76.645 68.355 
56.8701 78.1405 52.0724 
57.1774 77.5891 51.3997 
57.1894 77.8107 69.1893 
56.9053 78.0947 69.9053 
56.6686 77.3314 69.6686 
56.9409 78.9284 53.0716 
57.093 78.4473 52.6049 
56.8447 78.5889 52.4634 
57.4024 78.5976 69.4024 
57.0947 78.9053 70.0947 
56.8106 79.1893 70.8106 
56.574 78.426 70.574 
56.9409 79.9284 54.0716 
57.1191 79.3951 53.6049 
56.8708 79.5366 53.4634 
56.9527 80.0473 70.9527 
57.2604 79.7396 70.2604 
56.4556 79.5444 71.4556 
56.6686 80.3314 71.6686 
56.9409 80.9284 55.0716 
57.1191 80.3951 54.6049 
56.8708 80.5366 54.4634 
57.0237 80.9763 71.0237 
57.3314 80.6686 70.3314 
56.787 81.213 71.787 
56.8708 81.5366 55.4634 
56.9534 81.886 56.114 
57.1191 81.3951 55.6049 
57.071 81.929 71.071 
57.3314 81.6686 70.3314 
56.8817 82.1183 71.8817 
56.7633 82.2367 72.7633 
56.5976 81.4024 72.5976 
56.8215 82.4378 56.5622 
56.7452 82.7048 57.0473 
57.1824 82.2367 57 
56.9134 83.0354 57.9577 
57.1685 82.4938 57.5062 
57.0835 82.9346 71.0473 
57.3202 82.6979 70.284 
56.9763 83.0237 71.9763 
56.8817 83.1183 72.8817 
56.7633 83.2367 73.7633 
56.5976 82.4024 73.5976 
56.9328 84 59 
57.1191 83.3951 58.6049 
56.8025 83.6049 58.3951 
57.0362 83.9819 71 
57.2768 83.8616 70 
57 84 72 
56.9763 84.0237 72.9763 
56.8817 84.1183 73.8817 
56.7633 84.2367 74.7633 
56.5976 83.4024 74.5976 
57.1191 84.3951 59.6049 
56.8025 84.6049 59.3951 
56.9452 84.9577 60.0423 
57.0724 84.9638 70 
57.3291 84.8877 69.0523 
57.4473 84.1714 69.3951 
57 85 71 
57 85 72 
57 85 73 
56.9763 85.0237 73.9763 
56.858 85.142 74.858 
56.6213 85.3787 75.6213 
56.503 84.497 75.503 
56.704 86.0362 61 
57.1754 85.284 61 
56.743 85.5746 60.4938 
57.223 85.9477 62.0523 
57.2369 85.5622 61.5062 
57.2853 85.9116 68 
57.0724 85.9638 69 
57.4473 85.1714 68.3951 
57 86 70 
57 86 71 
57 86 72 
57 86 73 
57 86 74 
56.9053 86.0947 74.9053 
56.716 86.284 75.716 
56.6917 86.9562 62.0523 
56.6747 86.5062 61.4938 
56.9588 86.979 63.0684 
57.284 86.284 63 
57.3314 86.3314 64 
56.993 87.0473 64 
57.0404 87.0947 65 
57.3314 86.3314 65 
57.0947 87.0947 66 
57.3314 86.3314 66 
57.2992 86.2791 66.9316 
57.0835 87.0292 67 
57.0362 86.9819 68 
57 87 69 
57 87 70 
57 87 71 
57 87 72 
57 87 73 
57 87 74 
56.929 87.071 74.929 
56.787 87.213 75.787 
56.5802 87.6003 63.0684 
56.6324 87.3855 62.4938 
56.5763 87.9915 64 
56.8572 87.9316 65.0684 
56.9457 88 66 
57 88 67 
57 88 68 
57 88 69 
57 88 70 
57 88 71 
57 88 72 
57 88 73 
57 88 74 
56.9763 88.0237 74.9763 
56.858 88.142 75.858 
56.645 88.355 76.645 
56.5503 87.4497 76.5503 
56.5962 88.5062 64.4938 
56.6002 88.9477 65.0523 
56.8572 88.9316 66.0684 
56.9457 89 67 
57 89 68 
57 89 69 
57 89 70 
57 89 71 
57 89 72 
57 89 73 
57 89 74 
57 89 75 
56.9053 89.0947 75.9053 
56.716 89.284 76.716 
56.6002 89.9477 66.0523 
56.5962 89.5062 65.4938 
56.8572 89.9316 67.0684 
56.9457 90 68 
57 90 69 
57 90 70 
57 90 71 
57 90 72 
57 90 73 
57 90 74 
57 90 75 
56.929 90.071 75.929 
56.7508 90.2311 76.787 
56.6002 90.9477 67.0523 
56.5962 90.5062 66.4938 
56.8642 90.8843 68.0684 
56.8984 90.9527 69 
56.9457 91 70 
57 91 71 
57 91 72 
57 91 73 
57 91 74 
57 91 75 
56.9401 91.0418 75.9763 
56.6785 91.197 76.9276 
56.5056 90.3918 77.5056 
56.5024 90.905 77.5024 
56.6063 91.4378 67.4938 
56.6275 91.6476 68.0684 
56.6263 92 69 
56.8572 91.9316 70.0684 
56.9457 92 71 
57 92 72 
57 92 73 
57 92 74 
57 92 75 
56.8803 92.0835 75.9527 
56.6114 92.2679 76.6476 
56.5962 92.5062 69.4938 
56.6002 92.9477 70.0523 
56.8642 92.8843 71.0684 
56.9053 92.9053 72 
56.9053 92.9053 73 
56.9053 92.9053 74 
56.8691 92.9234 75 
56.6539 93.0846 75.9115 
56.5366 92.8708 76.5366 
56.6063 93.4378 70.4938 
56.6345 93.6003 71.0684 
56.6686 93.6686 72 
56.6686 93.6686 73 
56.6686 93.6686 74 
56.6114 93.6999 74.9316 
56.5062 93.7531 75.5062 
57.7147 42.0362 62.8392 
57.8691 42.0947 63.8872 
57.6003 41.3997 63.7028 
57.5366 41.4634 63.1292 
57.9053 42.0947 64.9053 
57.6686 41.3314 64.6686 
57.9053 42.0947 65.9053 
57.6686 41.3314 65.6686 
57.858 42.142 66.858 
57.645 41.355 66.645 
57.7633 42.2367 67.7633 
57.574 41.426 67.574 
57.7147 43.0362 60.8392 
57.8803 43.0473 61.9165 
57.6114 42.3524 61.7321 
57.5366 42.4634 61.1292 
57.9638 43 62.9819 
58 43 64 
58 43 65 
58 43 66 
57.9763 43.0237 66.9763 
57.8817 43.1183 67.8817 
57.7633 43.2367 68.7633 
57.6213 42.3787 68.6213 
57.6347 44.0885 58.8515 
57.8803 44.0473 59.9165 
57.5752 43.3524 59.714 
57.4843 43.4634 59.103 
57.9638 44 60.9819 
58 44 62 
58 44 63 
58 44 64 
58 44 65 
58 44 66 
58 44 67 
57.9763 44.0237 67.9763 
57.858 44.142 68.858 
57.645 44.355 69.645 
57.574 43.426 69.574 
57.9276 45 58.9638 
57.6432 45.0523 57.8739 
57.5004 44.3951 58.1452 
58 45 60 
58 45 61 
58 45 62 
58 45 63 
58 45 64 
58 45 65 
58 45 66 
58 45 67 
58 45 68 
57.9053 45.0947 68.9053 
57.6686 45.3314 69.6686 
57.7232 46 56.8616 
57.9276 46 57.9638 
57.5004 45.3951 57.1452 
58 46 59 
58 46 60 
58 46 61 
58 46 62 
58 46 63 
58 46 64 
58 46 65 
58 46 66 
58 46 67 
58 46 68 
57.9053 46.0947 68.9053 
57.6686 46.3314 69.6686 
57.8803 47.0473 55.9165 
57.5752 46.3524 55.714 
57.6347 47.0885 54.8515 
57.4843 46.4634 55.103 
57.9638 47 56.9819 
58 47 58 
58 47 59 
58 47 60 
58 47 61 
58 47 62 
58 47 63 
58 47 64 
58 47 65 
58 47 66 
58 47 67 
58 47 68 
57.8691 47.1128 68.9053 
57.6003 47.2972 69.6003 
57.4359 46.2932 98.0684 
57.1309 47.0766 98 
57.3215 46.9893 97 
57.6145 46.2891 97.4938 
58.0885 45.7809 98.1446 
58.08 46.303 97.0523 
57.6268 46.7953 96.5062 
57.3314 46.3314 99 
57.0947 47.0947 99 
57.8106 45.7563 99 
57.3968 46.3425 100 
57.0947 47.0947 100 
57.8156 45.7955 99.9316 
57.3836 46.4582 100.884 
57.1289 47.1157 100.884 
58.0783 45.9479 100.839 
57.3153 46.6306 101.369 
57.3836 47.1157 101.542 
57.7864 46.4582 101.542 
58.0783 47.1609 102.052 
57.6709 48.0523 53.8877 
58.0111 47.9527 55.0292 
57.5004 47.3951 54.1452 
58.0947 47.9053 56.0947 
58.0947 47.9053 57.0947 
58.0947 47.9053 58.0947 
58.0947 47.9053 59.0947 
58.071 47.929 60.071 
58.0237 47.9763 61.0237 
58 48 62 
58 48 63 
58 48 64 
58 48 65 
58 48 66 
58 48 67 
57.9638 48.0181 68 
57.7147 48.1608 68.9638 
57.5366 47.8708 69.5366 
57.4149 47.2116 96.0473 
57.1671 47.9638 96.0473 
57.4833 47.7975 95.4109 
57.6306 47.2369 95.6306 
58.0362 46.791 96.1285 
58.1157 47.2932 95.4763 
58.0639 48.1331 94.8456 
57.0362 47.9819 97 
57 48 98 
57 48 99 
57 48 100 
57.0947 48 100.905 
57.3968 48 101.658 
57.8156 48.0684 102.205 
58.23 48.9638 54.1331 
57.7348 49.0161 52.9378 
57.5004 48.3951 53.1452 
58.3202 48.716 55.3021 
58.3314 48.6686 56.3314 
58.3314 48.6686 57.3314 
58.3314 48.6686 58.3314 
58.284 48.716 59.284 
58.213 48.787 60.213 
58.1183 48.8817 61.1183 
58.0237 48.9763 62.0237 
58 49 63 
58 49 64 
58 49 65 
58 49 66 
58 49 67 
57.9165 49.0654 67.9527 
57.6798 49.3021 68.716 
57.0362 48.9819 96 
57.3215 48.8169 95.0447 
57.6572 48.7763 94.6049 
57 49 97 
57 49 98 
57 49 99 
57 49 100 
57.0947 49 100.905 
57.3314 49 101.669 
57.7633 49 102.237 
57.9707 50.0069 51.9819 
58.3162 49.6476 53.2317 
57.5527 49.3951 52.1714 
58.4634 49.5366 53.8708 
58.2367 49.7633 61.2367 
58.3787 49.6213 60.3787 
58.1183 49.8817 62.1183 
58.0237 49.9763 63.0237 
58 50 64 
58 50 65 
58 50 66 
58 50 67 
57.8691 50.1128 67.9053 
57.5641 50.3153 68.6003 
57.0835 49.9346 95.0473 
57.4721 49.6666 94.3997 
57.5157 49.0769 94.5157 
58.0362 48.9453 94.3499 
58.0639 50.0607 93.8148 
56.9165 49.9708 96 
56.8984 49.9527 97 
56.9457 50 98 
57 50 99 
57 50 100 
57.0947 50 100.905 
57.3314 50 101.669 
57.7633 50 102.237 
58.2461 50.9477 51.0707 
57.6003 50.4109 50.7683 
57.674 51.0961 49.8915 
57.3855 50.5622 50.1524 
58.3951 50.6049 51.8025 
58.3787 50.6213 61.3787 
58.2367 50.7633 62.2367 
58.1183 50.8817 63.1183 
58.0237 50.9763 64.0237 
58 51 65 
58 51 66 
57.9638 51.0181 67 
57.6785 51.1831 67.9553 
57.4843 50.897 68.5366 
57.2215 50.8307 94.0085 
57.6572 50.8025 93.5527 
56.8572 50.9316 98.0684 
56.9457 51 99 
57 51 100 
57.0947 51 100.905 
57.3314 51 101.669 
57.7633 51 102.237 
57.9353 52.0423 49.01 
58.3162 51.6476 50.2317 
57.5527 51.4473 49.1452 
58.4634 51.5366 50.8708 
58.3787 51.6213 62.3787 
58.213 51.787 63.213 
58.071 51.929 64.071 
58 52 65 
58 52 66 
57.8803 52.0835 66.9527 
57.5279 52.3334 67.6003 
57.4473 51.1714 93.3951 
58 51.0635 93.0635 
57.6049 51.7763 92.6572 
56.8572 51.9316 99.0684 
56.9457 52 100 
57.0947 52 100.905 
57.3314 52 101.669 
57.7633 52 102.237 
57.9776 53 47.9888 
58.3428 52.6049 48.7763 
57.6049 52.3951 48.1975 
58.284 52.716 63.284 
58.0947 52.9053 64.0947 
58 53 65 
57.9276 53.0362 66 
57.6347 53.1485 66.9115 
57.4843 52.9231 67.4843 
57.326 52.8915 92.0961 
57.4473 52.1452 92.4473 
58.0277 51.9038 92.3329 
58.1046 52.6666 91.8275 
56.8572 52.9316 100.068 
57.0404 53 100.905 
57.3314 53 101.669 
57.7633 53 102.237 
57.9776 54 46.9888 
58.3428 53.6049 47.7763 
57.6049 53.3951 47.1975 
58.0947 53.9053 64.0947 
58.3314 53.6686 63.3314 
57.9638 54.0181 65 
57.687 54.1608 65.9915 
57.5004 53.8548 66.6049 
57.3997 53.7502 91.4471 
57.6145 53.1524 91.5622 
58.1157 53.2709 91.3997 
58.0473 54 91.0947 
56.993 54 100.953 
57.3314 54 101.669 
57.7633 54 102.237 
57.9776 54.9776 46 
58.3428 54.6049 46.7763 
57.6049 54.3951 46.1975 
58.3314 54.6686 63.3314 
58.0947 54.9053 64.0947 
57.9165 55.0654 64.9527 
57.5851 55.3787 65.6575 
58.0684 54.7028 90.737 
57 55 101 
57.3314 55 101.669 
57.7633 55 102.237 
57.9884 55.7348 45.0484 
58.3428 55.5527 45.8025 
57.6049 55.3428 45.2237 
58.355 55.645 63.355 
58.142 55.858 64.142 
57.929 56.071 64.929 
57.5976 56.4024 65.5976 
57.3524 55.8156 90.3635 
57.5622 55.1785 90.5622 
58.1157 55.289 90.3635 
58.0362 56.1469 89.8456 
57 56 101 
57.3314 56 101.669 
57.7633 56 102.237 
57.9353 57.0354 42.9695 
58.3428 56.6572 43.7502 
57.9115 56.3185 43.9293 
57.5062 56.5461 43.2208 
58.2367 56.7633 64.2367 
58.426 56.574 63.426 
58.0473 56.9527 65.0473 
57.787 57.213 65.787 
57.6049 56.8025 89.6049 
57 57 101 
57.3314 57 101.669 
57.7633 57 102.237 
58.0161 57.7071 42.0761 
58.3951 57.5527 42.8286 
57.6049 57.3951 42.1975 
58.426 57.574 64.426 
58.284 57.716 65.284 
58.142 57.858 66.142 
57.3951 57.093 89.4473 
58 56.89 89.3052 
58 57.6436 88.8065 
57 58 101 
57.3314 58 101.669 
57.7633 58 102.237 
58.0523 58.7263 28.0846 
58.3951 58.5527 28.8286 
57.9115 58.3376 28.8654 
57.6049 58.4473 28.1714 
57.9053 58.1309 29.8872 
57.9053 58.0947 30.9053 
57.9053 58.0947 31.9053 
57.9053 58.0947 32.9053 
57.9053 58.0947 33.9053 
57.9053 58.0947 34.9053 
57.9053 58.0947 35.9053 
57.9053 58.0947 36.9053 
57.9053 58.0947 37.9053 
57.9053 58.0947 38.9053 
57.9053 58.0947 39.9053 
57.9053 58.0223 40.9415 
58.0237 57.9763 67.0237 
57.929 58.071 67.929 
57.858 58.142 68.858 
57.787 58.213 69.787 
57.6923 58.3077 70.6923 
58.426 58.574 70.426 
58.3077 58.6923 71.3077 
57.5266 58.4734 71.5266 
58.1893 58.8107 72.1893 
58 58.2367 88.2367 
58 58.7633 87.7633 
56.9588 58.9316 101.021 
57.2771 59 101.669 
57.7633 59 102.237 
58 60.0224 25.9888 
58.3951 59.6572 26.7763 
57.9477 59.3014 26.9016 
57.6049 59.4996 26.1452 
58.071 58.929 73.071 
58 59 74 
58 59 75 
58 59 76 
58 59 77 
58 59 78 
58 59 79 
57.9763 59.0237 79.9763 
57.929 59.071 80.929 
57.8343 59.1657 81.8343 
57.645 59.355 82.645 
58.284 59.716 83.284 
58 59.2367 87.2367 
58 59.6686 86.6686 
57.1955 59.9316 101.784 
57.7291 59.9316 102.305 
57.9646 61.0423 24.9807 
58.3951 60.6049 25.8025 
57.6049 60.3951 25.1975 
58.0947 59.9053 84.0947 
58 60 85 
58 59.9053 85.9053 
57.7269 60.5062 102.442 
57.6986 62.0523 23.9431 
58.2268 62.0684 24.6847 
57.5527 61.3951 24.1714 
57.2208 61.4938 102.454 
57.3001 62.0684 102.611 
57.9297 61.0181 102.66 
58.0766 62 102.869 
57.4986 63.0684 23.3043 
57.9638 63 23.9819 
57.3855 62.4938 23.2891 
58.3314 63 24.6686 
57.3314 63 102.669 
58.0947 63 102.905 
57.5871 63.9316 23.4471 
57.9588 63.9316 24.021 
58.2771 64 24.6686 
57.3314 64 102.669 
58.0947 64 102.905 
57.6864 64.9477 24.0076 
57.6324 64.5062 23.6145 
58.1955 64.9316 24.7844 
57.3997 64.9316 102.634 
58.1157 64.9316 102.864 
57.743 65.5062 24.4255 
57.9788 65.9577 25.0423 
57.5622 65.5062 102.606 
58 66 102.626 
57.5062 66.4938 102.168 
58.0112 66.9776 26 
58.1975 66.3951 25.6049 
57.8025 66.6049 25.3951 
58 67.0947 83.0947 
58 67.3383 82.284 
58 67 84 
58 67 85 
57.9053 67.0947 85.9053 
57.6686 67.3314 86.6686 
57.2268 67.0684 101.685 
57.6949 67.0684 102.217 
58.1123 67.6709 27.0523 
58.2237 67.3428 26.6049 
57.8548 67.5004 26.3951 
57.9132 68.1777 28.0523 
58 68.1016 72.0473 
57.9477 68.3476 70.9477 
58 68 73 
58 68 74 
58 68 75 
58 68 76 
58 68 77 
58 68 78 
58 67.9457 79 
57.9527 67.8984 80 
57.8843 67.8711 80.8843 
57.9316 67.6888 81.6003 
57.8107 68.1893 87.8107 
58.2367 67.7633 87.2367 
56.9638 68 100.982 
57.3314 68 101.669 
57.7633 68 102.237 
58.2478 68.3564 29 
57.7953 68.4901 28.5622 
57.7814 68.6324 29.0473 
58.0383 68.7061 30 
58.2469 68.4938 29.5062 
57.9234 68.8691 31 
57.9053 68.9053 32 
57.9053 68.9053 33 
57.9053 68.9053 34 
57.9053 68.9053 35 
57.9053 68.9053 36 
57.9053 68.9053 37 
57.9053 68.9053 38 
57.9053 68.9053 39 
57.9053 68.9053 40 
57.8691 68.9777 41 
57.8654 69.2652 41.9477 
57.9737 69.0481 67.0684 
57.9799 69.386 66.0438 
57.8843 68.9185 67.9316 
58 68.6678 69 
57.6476 68.6818 69.9316 
58.3524 68.3182 70.0684 
58.5622 68.3153 69.4938 
57.4378 68.6948 70.4378 
57.355 68.645 88.355 
57.8343 69.1657 88.8343 
58.2604 68.7396 88.2604 
57 69 101 
57.3314 69 101.669 
57.7633 69 102.237 
57.9564 69.9353 43.0423 
58.1714 69.4473 42.6049 
57.8025 69.6049 42.3951 
58.0362 70.1309 64.9527 
58.3413 69.3071 65.0684 
58.3461 69.9154 64.0885 
58.4938 69.2469 64.4938 
57.6213 70.4149 65.6575 
57.3314 69.6686 89.3314 
57.6923 70.3077 89.6923 
58.1601 69.858 89.1782 
57 70 101 
57.3314 70 101.669 
57.7633 70 102.237 
58.0292 70.6815 44.0885 
58.1452 70.3428 43.6049 
57.897 70.4843 43.4634 
57.8239 71.2652 44.9477 
58.3997 70.7028 63.3997 
58.1309 70.8872 64.0947 
58.4634 70.1292 63.4634 
57.9053 71.0947 64.9053 
57.5976 71.4024 65.5976 
57.1894 70.8107 90.1893 
57.9819 71 89.9638 
57 71 101 
57.3314 71 101.669 
57.7633 71 102.237 
57.9328 72 46 
58.093 71.4473 45.6049 
57.7763 71.6572 45.3951 
58.0947 71.9053 64.0947 
58.3314 71.6686 63.3314 
57.9053 72.0947 64.9053 
57.6923 72.3077 65.6923 
57.4734 71.5266 90.4734 
57.787 72.213 90.787 
58.3133 71.6686 90.2952 
57.0111 72 100.935 
57.3314 72 101.669 
57.7633 72 102.237 
57.9328 73 47 
58.1191 72.3951 46.6049 
57.8025 72.6049 46.3951 
58.3314 72.6686 63.3314 
58.0947 72.9053 64.0947 
57.929 73.071 64.929 
57.787 73.213 65.787 
57.2604 72.7396 91.2604 
58.071 72.929 91.071 
57.0585 73 100.887 
57.3314 73 101.669 
57.7633 73 102.237 
57.9328 74 48 
58.1191 73.3951 47.6049 
57.8025 73.6049 47.3951 
58.3314 73.6686 63.3314 
58.0947 73.9053 64.0947 
57.9763 74.0237 64.9763 
57.8817 74.1183 65.8817 
57.7633 74.2367 66.7633 
57.5976 73.4024 66.5976 
57.142 73.858 92.142 
57.5444 73.4556 91.5444 
57.858 74.142 91.858 
58.355 73.645 91.355 
56.9276 74 99.9638 
57.0947 74 100.905 
57.3314 74 101.669 
57.7633 74 102.237 
57.9328 75 49 
58.1191 74.3951 48.6049 
57.8025 74.6049 48.3951 
58.0835 74.9346 64.0473 
58.3202 74.6979 63.284 
58 75 65 
57.9763 75.0237 65.9763 
57.858 75.142 66.858 
57.6213 75.3787 67.6213 
57.503 74.497 67.503 
57.1183 74.8817 93.1183 
57.426 74.574 92.426 
57.7633 75.2367 92.7633 
58.1601 74.858 92.1782 
56.9276 75 98.9638 
57 75 100 
57.0947 75 100.905 
57.3314 75 101.669 
57.7633 75 102.237 
58.1191 75.3951 49.6049 
57.8025 75.6049 49.3951 
57.9564 75.9353 50.0423 
58.2768 75.8616 63 
58.0362 75.9819 64 
58 76 65 
58 76 66 
57.9053 76.0947 66.9053 
57.716 76.284 67.716 
57.142 75.858 94.142 
57.3787 75.6213 93.3787 
57.6923 76.3077 93.6923 
58.071 75.929 93.071 
56.9763 76.0237 94.9763 
56.9053 76.0947 95.9053 
56.9165 76.0473 96.9346 
56.9638 76 97.9819 
57 76 99 
57 76 100 
57.0947 76 100.905 
57.3314 76 101.669 
57.7633 76 102.237 
57.7692 76.5223 50.4938 
57.6917 76.9562 51.0523 
58.1754 76.284 51 
58.2283 76.9115 52.0523 
58.2369 76.5622 51.5062 
58.0724 76.9638 63 
58.3291 76.8877 62.0523 
58.4473 76.1714 62.3951 
58 77 64 
58 77 65 
58 77 66 
57.929 77.071 66.929 
57.787 77.213 67.787 
57.142 76.858 95.142 
57.3314 76.6686 94.3314 
57.9819 77 93.9638 
57.0237 76.9763 96.0237 
57 77 97 
57 77 98 
57 77 99 
57 77 100 
57.0947 77 100.905 
57.3314 77 101.669 
57.7633 77 102.237 
57.7531 77.3694 51.5622 
57.711 77.6365 52.1157 
58.2166 77.3051 52.9316 
57.6801 78.08 52.9477 
58.223 77.9477 54.0523 
58.2369 77.5622 53.5062 
58.2853 77.9116 61 
58.0724 77.9638 62 
58.4473 77.1714 61.3951 
58 78 63 
58 78 64 
58 78 65 
58 78 66 
57.9763 78.0237 66.9763 
57.858 78.142 67.858 
57.6923 78.3077 68.6923 
57.5503 77.4497 68.5503 
57.2604 77.7396 95.2603 
57.5444 77.4556 94.5444 
57.858 78.142 94.858 
58.3133 77.6686 94.2952 
57.1183 77.8817 96.1183 
57.0237 77.9763 97.0237 
57 78 98 
57 78 99 
57 78 100 
57.0947 78 100.905 
57.3314 78 101.669 
57.7633 78 102.237 
57.6747 78.5062 53.4938 
57.6779 78.9839 54.0523 
57.9519 79.0263 55.0684 
58.284 78.284 55 
58.0404 79.0947 56 
58.3314 78.3314 56 
58.0947 79.0947 57 
58.3314 78.3314 57 
58.0947 79.0947 58 
58.3314 78.3314 58 
58.3314 78.3314 59 
58.0947 79.0947 59 
58.0835 79.0292 60 
58.2992 78.2791 59.9316 
58.0362 78.9819 61 
58 79 62 
58 79 63 
58 79 64 
58 79 65 
58 79 66 
58 79 67 
57.929 79.071 67.929 
57.787 79.213 68.787 
57.2367 78.7633 96.2367 
57.4497 78.5503 95.4497 
57.7633 79.2367 95.7633 
58.1601 78.858 95.1782 
57.1183 78.8816 97.1183 
57.0237 78.9763 98.0237 
57 79 99 
57 79 100 
57.0947 79 100.905 
57.3314 79 101.669 
57.8106 79 102.244 
57.5962 79.5062 54.4938 
57.6002 79.9477 55.0523 
57.8572 79.9316 56.0684 
57.9457 80 57 
58 80 58 
58 80 59 
58 80 60 
58 80 61 
58 80 62 
58 80 63 
58 80 64 
58 80 65 
58 80 66 
58 80 67 
57.9763 80.0237 67.9763 
57.858 80.142 68.858 
57.645 80.355 69.645 
57.574 79.426 69.574 
57.2367 79.7633 97.2367 
57.4024 79.5976 96.4024 
57.7633 80.2367 96.7633 
58.071 79.929 96.071 
57.142 79.858 98.142 
57.0947 79.9053 99.0947 
57.0947 79.9053 100.095 
57.1893 79.9053 101 
57.4471 79.8843 101.736 
58.0885 79.8192 102.224 
57.5962 80.5062 55.4938 
57.6002 80.9477 56.0523 
57.8642 80.8843 57.0684 
57.8984 80.9527 58 
57.9457 81 59 
58 81 60 
58 81 61 
58 81 62 
58 81 63 
58 81 64 
58 81 65 
58 81 66 
58 81 67 
58 81 68 
57.9053 81.0947 68.9053 
57.6686 81.3314 69.6686 
57.3787 80.6213 98.3787 
57.497 80.503 97.497 
57.9819 81.0362 98 
58.213 80.787 97.213 
57.3314 80.6686 99.3314 
57.8106 81.1893 98.8107 
57.3787 80.6575 100.361 
57.8106 81.2255 99.7926 
57.4944 80.5418 101.232 
58.1247 81.0936 100.849 
57.6306 80.3694 101.763 
58.1157 80.5237 101.707 
57.6063 81.4378 56.4938 
57.6275 81.6476 57.0684 
57.6263 82 58 
57.8572 81.9316 59.0684 
57.9457 82 60 
58 82 61 
58 82 62 
58 82 63 
58 82 64 
58 82 65 
58 82 66 
58 82 67 
58 82 68 
57.9053 82.0947 68.9053 
57.6686 82.3314 69.6686 
57.6002 82.9477 59.0523 
57.5962 82.5062 58.4938 
57.8572 82.9316 60.0684 
57.9457 83 61 
58 83 62 
58 83 63 
58 83 64 
58 83 65 
58 83 66 
58 83 67 
58 83 68 
57.8691 83.1128 68.9053 
57.6003 83.2972 69.6003 
57.6002 83.9477 60.0523 
57.5962 83.5062 59.4938 
57.8642 83.8843 61.0684 
57.8984 83.9527 62 
57.9457 84 63 
58 84 64 
58 84 65 
58 84 66 
58 84 67 
57.9276 84.0362 68 
57.6624 84.1346 68.9115 
57.5366 83.8708 69.5366 
57.6063 84.4378 60.4938 
57.6275 84.6476 61.0684 
57.6678 85 62 
57.8642 84.8843 63.0684 
57.9053 84.9053 64 
57.9053 84.9053 65 
57.9053 84.9053 66 
57.8691 84.9234 67 
57.6624 85.0622 67.9477 
57.5527 84.8286 68.6049 
57.6887 85.6003 63.0684 
57.6847 85.4378 62.4938 
57.6686 85.6686 64 
57.6686 85.6686 65 
57.6686 85.6686 66 
57.6114 85.6999 66.9316 
57.5062 85.7531 67.5062 
58.3051 45.4059 98.9737 
58.3951 45.404 98.4748 
58.8753 45.9032 98.0645 
59.1894 45.7744 99.2074 
58.716 45.4451 98.7893 
58.5366 45.4809 98.3035 
58.1999 45.4707 99.8133 
59.1894 45.8106 100.189 
58.7396 45.4497 99.645 
58.1705 45.5441 100.404 
58.9944 45.9875 100.976 
58.6262 45.5529 100.458 
58.3951 46.398 96.5171 
58.9361 46.8456 96.1331 
59.3428 46.6049 96.7763 
