# .PCD v.7 - Point Cloud Data file format
VERSION .7
FIELDS x y z
SIZE 4 4 4
TYPE F F F
COUNT 1 1 1
WIDTH 1792
HEIGHT 1
VIEWPOINT 0 0 0 1 0 0 0
POINTS 1792
DATA ascii
1.08187 0.19866 1.35519 
1.32162 0.206397 1.3552 
1.08398 0.195941 1.41251 
1.31966 0.203513 1.4123 
1.20187 0.198534 1.5041 
1.1502 0.195062 1.51817 
1.25365 0.1984 1.51795 
1.08924 0.189171 1.35519 
1.31487 0.196451 1.3552 
1.09046 0.187602 1.41079 
1.31373 0.194769 1.41032 
1.09112 0.186754 1.46206 
1.31314 0.193895 1.46193 
1.1532 0.18676 1.5044 
1.2512 0.189922 1.5038 
1.09724 0.178896 1.46223 
1.30755 0.185657 1.46198 
1.2024 0.182079 1.54531 
1.10273 0.171807 1.50817 
1.30252 0.178255 1.51554 
1.20265 0.174462 1.53721 
1.15916 0.170241 1.54592 
1.24631 0.173053 1.54569 
1.08612 0.166455 1.46246 
1.05933 0.165575 1.41632 
1.0726 0.166003 1.4624 
1.07478 0.166074 1.41632 
1.0985 0.16684 1.50886 
1.10639 0.167094 1.5158 
1.10639 0.167094 1.49352 
1.11352 0.167324 1.50243 
1.15573 0.168687 1.54548 
1.15967 0.168814 1.54668 
1.15967 0.168814 1.53139 
1.185 0.169631 1.53749 
1.19547 0.169969 1.53857 
1.19547 0.169969 1.55041 
1.2975 0.170839 1.50261 
1.24424 0.165912 1.53758 
1.03835 0.151986 1.35519 
1.36805 0.162625 1.3552 
1.04168 0.149758 1.41245 
1.36486 0.160134 1.41246 
1.28825 0.157215 1.54314 
1.04343 0.148536 1.41632 
1.2034 0.151089 1.5606 
1.04843 0.145151 1.35519 
1.35844 0.155155 1.3552 
1.19615 0.148906 1.56081 
1.05039 0.143847 1.41057 
1.35655 0.153668 1.4104 
1.28397 0.150908 1.53441 
1.35515 0.152601 1.46176 
1.05262 0.142306 1.41632 
1.20359 0.145104 1.55161 
1.19635 0.142922 1.55179 
1.23765 0.14314 1.56144 
1.34735 0.146523 1.46174 
1.23604 0.137575 1.55224 
1.33931 0.140292 1.51329 
1.05454 0.126254 1.46295 
1.04342 0.125878 1.4631 
1.03213 0.1255 1.41632 
1.04461 0.125902 1.41632 
1.06584 0.126588 1.51427 
1.07534 0.126894 1.50557 
1.07534 0.126894 1.52339 
1.07604 0.126917 1.50682 
1.09905 0.127659 1.54319 
1.1088 0.127974 1.53487 
1.13611 0.128855 1.54579 
1.13611 0.128855 1.55833 
1.14157 0.129031 1.55983 
1.15764 0.12955 1.55158 
1.17366 0.130067 1.55375 
1.17366 0.130067 1.56464 
1.19674 0.130812 1.55468 
1.19674 0.130812 1.56572 
1.07577 0.126598 1.50687 
1.33234 0.134878 1.50231 
1.13735 0.127248 1.55957 
1.27084 0.131555 1.5591 
1.14103 0.122519 1.55062 
1.26749 0.126601 1.54995 
1.09031 0.116738 1.54434 
1.31847 0.124101 1.54168 
1.09646 0.112564 1.53657 
1.3126 0.119539 1.5335 
1.20454 0.11576 1.57024 
1.20467 0.111638 1.55964 
1.18159 0.108083 1.5709 
1.22793 0.109578 1.57088 
1.18294 0.104365 1.56015 
1.22683 0.105781 1.56011 
1.11608 0.0992554 1.56128 
1.29388 0.104993 1.56039 
1.15904 0.0993365 1.57025 
1.251 0.102304 1.57017 
1.01107 0.0942963 1.35519 
1.399 0.106815 1.3552 
1.0144 0.0933756 1.4123 
1.39574 0.105599 1.41271 
1.12087 0.096003 1.55226 
1.2893 0.101438 1.55099 
1.16157 0.0960792 1.55966 
1.24869 0.0988908 1.55949 
1.02262 0.0909528 1.35519 
1.38769 0.102734 1.3552 
1.02455 0.0904229 1.4104 
1.3858 0.102028 1.41031 
1.02558 0.0901223 1.46277 
1.3848 0.101689 1.46259 
1.03514 0.0873418 1.46313 
1.37544 0.0982935 1.46179 
1.04373 0.084836 1.51842 
1.36701 0.0952689 1.50983 
1.05234 0.0823431 1.51069 
1.35858 0.0922257 1.5022 
1.06815 0.0777634 1.54573 
1.34309 0.0866355 1.54067 
1.14499 0.0796392 1.57094 
1.26629 0.083554 1.57082 
1.07547 0.075643 1.53798 
1.33592 0.084048 1.5324 
1.14826 0.0774205 1.56025 
1.26317 0.0811293 1.55995 
1.20578 0.0774063 1.57569 
1.20584 0.0753056 1.5636 
1.19415 0.0733244 1.57564 
1.21765 0.0740832 1.57564 
1.09794 0.0691384 1.56094 
1.31393 0.0761087 1.55931 
1.19482 0.071438 1.56353 
1.21709 0.0721564 1.56352 
1.10369 0.0674727 1.5522 
1.3083 0.0740754 1.54998 
1.18259 0.069035 1.57575 
1.22946 0.0705472 1.57575 
1.18388 0.0673743 1.56365 
1.22828 0.0688072 1.56363 
1.13189 0.0593054 1.57037 
1.28068 0.0641075 1.57014 
1.13585 0.0581575 1.55989 
1.2768 0.0627069 1.55938 
1.17558 0.0588944 1.57566 
1.23711 0.0608797 1.57566 
1.17723 0.0577683 1.56357 
1.23553 0.0596498 1.56353 
1.16874 0.04863 1.57572 
1.24459 0.0510784 1.57572 
1.17076 0.0480458 1.56364 
1.24261 0.0503638 1.56359 
1.01787 0.0314673 1.41092 
1.01964 0.0315126 1.46276 
1.02951 0.0318123 1.46257 
1.0033 0.0309571 1.35519 
1.00733 0.0310867 1.41218 
1.01547 0.0313496 1.35519 
1.03968 0.0321306 1.51864 
1.0485 0.0324156 1.51087 
1.06605 0.032982 1.54581 
1.07348 0.0332221 1.53796 
1.09718 0.0339866 1.56266 
1.10297 0.0341736 1.55228 
1.1321 0.0351132 1.57099 
1.13605 0.0352408 1.56038 
1.16903 0.0363052 1.57562 
1.17104 0.03637 1.56353 
1.20706 0.0375327 1.56465 
1.20706 0.0375327 1.57734 
1.24309 0.0386947 1.56348 
1.2451 0.0387593 1.57562 
1.27808 0.0398238 1.55989 
1.28203 0.0399514 1.57079 
1.31116 0.040892 1.55002 
1.31695 0.0410786 1.56105 
1.34065 0.0418435 1.53208 
1.34808 0.0420825 1.54055 
1.36563 0.0426491 1.50218 
1.37445 0.0429341 1.50958 
1.3945 0.0435812 1.4626 
1.39867 0.0437157 1.3552 
1.41084 0.0441083 1.3552 
1.38464 0.043251 1.46159 
1.39629 0.043623 1.41042 
1.40681 0.0439559 1.41272 
1.17152 0.0247002 1.56364 
1.24337 0.0270197 1.56359 
1.16954 0.0239871 1.57572 
1.24538 0.0264341 1.57572 
1.1786 0.0154132 1.56356 
1.2369 0.0172948 1.56353 
1.17702 0.0141843 1.57566 
1.23855 0.0161702 1.57566 
1.13733 0.0123538 1.55988 
1.27828 0.0169032 1.55938 
1.13344 0.0109556 1.57036 
1.28224 0.0157582 1.57014 
1.18585 0.00625396 1.56365 
1.23025 0.00768684 1.56363 
1.18467 0.00451687 1.57575 
1.23154 0.00602953 1.57575 
1.10583 0.000975803 1.5522 
1.31044 0.00757892 1.54997 
1.19704 0.00290435 1.56352 
1.21931 0.00362318 1.56352 
1.1002 -0.00105284 1.56093 
1.31619 0.00591756 1.5593 
1.19648 0.000981771 1.57564 
1.21998 0.00174009 1.57564 
1.20828 -0.000245359 1.56359 
1.20835 -0.00234181 1.57569 
1.15096 -0.00607629 1.56024 
1.26587 -0.00236794 1.55994 
1.07821 -0.00900636 1.53796 
1.33866 -0.000602376 1.53238 
1.14784 -0.00849378 1.57094 
1.26914 -0.00457994 1.57082 
1.07104 -0.01159 1.54571 
1.34598 -0.00271701 1.54066 
1.05555 -0.017183 1.51068 
1.36179 -0.00730047 1.50218 
1.04713 -0.0202205 1.51841 
1.3704 -0.00978762 1.50982 
1.03873 -0.0232243 1.46312 
1.37901 -0.0122822 1.46178 
1.02936 -0.0266069 1.46262 
1.38856 -0.0150382 1.46259 
1.02836 -0.0269552 1.4104 
1.3896 -0.0153509 1.41055 
1.02645 -0.0276692 1.35519 
1.39152 -0.0158885 1.3552 
1.16544 -0.023854 1.55964 
1.25256 -0.0210428 1.55947 
1.12483 -0.0264202 1.55223 
1.29326 -0.0209848 1.55096 
1.01841 -0.03055 1.41255 
1.39975 -0.0182836 1.4122 
1.01514 -0.0317502 1.35519 
1.40307 -0.0192309 1.3552 
1.16312 -0.0272516 1.57024 
1.25509 -0.0242834 1.57016 
1.12025 -0.0299606 1.56126 
1.29805 -0.0242229 1.56038 
1.1873 -0.0307512 1.56013 
1.23119 -0.0293353 1.56008 
1.1862 -0.0345273 1.57089 
1.23253 -0.0330322 1.57088 
1.20946 -0.0366191 1.55962 
1.20959 -0.0407155 1.57023 
1.10153 -0.0445747 1.5365 
1.31767 -0.0375996 1.53344 
1.09566 -0.04912 1.54429 
1.32383 -0.0417565 1.54163 
1.14665 -0.05165 1.55054 
1.27311 -0.0475686 1.54988 
1.14329 -0.0565728 1.55952 
1.27678 -0.0522651 1.55905 
1.08179 -0.0599382 1.50679 
1.33836 -0.0516581 1.50223 
1.04947 -0.0611297 1.4632 
1.06056 -0.0607948 1.46321 
1.03816 -0.0615314 1.41632 
1.05064 -0.0611285 1.41632 
1.07182 -0.0604449 1.51422 
1.08151 -0.0601318 1.52353 
1.08155 -0.0601307 1.50601 
1.08197 -0.0601172 1.50676 
1.10498 -0.0593747 1.54313 
1.11469 -0.0590612 1.53479 
1.14221 -0.0581736 1.55834 
1.14225 -0.0581722 1.5458 
1.14738 -0.0580065 1.55976 
1.16333 -0.0574919 1.55148 
1.17972 -0.0569627 1.56461 
1.17974 -0.0569621 1.5537 
1.20278 -0.0562186 1.55463 
1.20277 -0.0562187 1.56569 
1.34567 -0.0565992 1.51323 
1.24243 -0.0605885 1.55215 
1.3541 -0.0622908 1.46153 
1.2444 -0.0659931 1.56137 
1.20317 -0.0685223 1.55167 
1.21055 -0.070244 1.55148 
1.0597 -0.0770157 1.41632 
1.36227 -0.0678228 1.46171 
1.29113 -0.0709101 1.53425 
1.0576 -0.0786345 1.41032 
1.36376 -0.0687877 1.41062 
1.20336 -0.0744553 1.56072 
1.0557 -0.0800905 1.35519 
1.36571 -0.0700861 1.3552 
1.21074 -0.0761746 1.56051 
1.05094 -0.0838176 1.41632 
1.29581 -0.0768975 1.54316 
1.04929 -0.08508 1.41244 
1.37247 -0.0746914 1.41269 
1.04608 -0.0875606 1.35519 
1.37579 -0.0769205 1.3552 
1.25246 -0.0885873 1.53733 
1.30592 -0.0900307 1.5027 
1.09451 -0.0988961 1.46192 
1.06785 -0.0997712 1.41632 
1.08099 -0.0993473 1.46231 
1.08327 -0.0992737 1.41632 
1.10678 -0.0985147 1.50871 
1.11519 -0.0982433 1.51611 
1.11522 -0.0982425 1.49444 
1.12122 -0.0980487 1.50202 
1.16346 -0.0966856 1.54516 
1.16835 -0.0965276 1.54665 
1.16839 -0.0965264 1.53163 
1.19161 -0.0957768 1.53724 
1.20404 -0.0953758 1.53852 
1.20404 -0.0953758 1.55037 
1.16783 -0.0983494 1.5457 
1.25498 -0.0955367 1.54547 
1.2115 -0.0999248 1.53689 
1.11162 -0.103545 1.50795 
1.31141 -0.0970968 1.51563 
1.10662 -0.110857 1.46205 
1.21175 -0.107497 1.54501 
1.31695 -0.104102 1.46182 
1.16295 -0.115517 1.50431 
1.26096 -0.112354 1.50418 
1.10103 -0.11911 1.46217 
1.32305 -0.111968 1.46204 
1.10043 -0.119789 1.41025 
1.3237 -0.112616 1.41074 
1.09927 -0.121387 1.35519 
1.3249 -0.114105 1.3552 
1.1605 -0.123996 1.51777 
1.26395 -0.120657 1.51755 
1.21229 -0.124298 1.50437 
1.09451 -0.128534 1.41245 
1.3302 -0.120973 1.41215 
1.09252 -0.131333 1.35519 
1.33227 -0.123595 1.3552 
1.15771 -0.133676 1.462 
1.26743 -0.130149 1.46199 
1.21258 -0.133274 1.51818 
1.15495 -0.143217 1.46232 
1.27078 -0.139487 1.46197 
1.21292 -0.142067 1.46205 
1.15446 -0.144495 1.41063 
1.27138 -0.140737 1.41038 
1.15374 -0.146602 1.35519 
1.27216 -0.142781 1.3552 
1.21323 -0.152086 1.46206 
1.21326 -0.15262 1.41061 
1.15151 -0.154636 1.41231 
1.27496 -0.150666 1.41231 
1.21326 -0.154403 1.3552 
1.15036 -0.158297 1.35519 
1.27629 -0.154233 1.3552 
1.21357 -0.163218 1.41219 
1.21365 -0.166414 1.3552 
1.39447 -1.28666 1.10583 
1.39396 -1.2862 1.10787 
1.39335 -1.28608 1.10865 
1.39263 -1.28596 1.10944 
1.39031 -1.286 1.11043 
1.39072 -1.28836 1.10114 
1.39294 -1.2878 1.10218 
1.39359 -1.28751 1.10299 
1.39414 -1.28724 1.10378 
1.32068 -1.31167 1.13513 
1.32109 -1.31485 1.13528 
1.32155 -1.31836 1.13472 
1.32189 -1.32081 1.13326 
1.3222 -1.32299 1.13043 
1.32241 -1.32439 1.12755 
1.32365 -1.33165 1.09892 
1.3237 -1.3318 1.09571 
1.32367 -1.33124 1.09217 
1.3235 -1.32979 1.0897 
1.32316 -1.32698 1.0875 
1.3228 -1.32412 1.08609 
1.32007 -1.30272 1.08054 
1.31795 -1.29028 1.12958 
1.30478 -1.31703 1.13608 
1.30479 -1.31698 1.13511 
1.30437 -1.3138 1.13496 
1.30435 -1.31366 1.13592 
1.30164 -1.2924 1.12941 
1.3016 -1.29216 1.13035 
1.3038 -1.30509 1.07944 
1.30376 -1.30485 1.08038 
1.30649 -1.32625 1.08593 
1.30655 -1.32658 1.08502 
1.30685 -1.3291 1.08734 
1.30693 -1.32961 1.08652 
1.3072 -1.33192 1.08954 
1.3073 -1.33265 1.08889 
1.30736 -1.33336 1.09201 
1.30748 -1.33428 1.09167 
1.3074 -1.33392 1.09555 
1.30752 -1.33488 1.09549 
1.30734 -1.33378 1.09875 
1.30747 -1.33473 1.0989 
1.30611 -1.32651 1.12739 
1.30622 -1.32741 1.12772 
1.3059 -1.32511 1.13027 
1.306 -1.32593 1.13078 
1.30558 -1.32293 1.1331 
1.30566 -1.32358 1.13384 
1.30525 -1.32049 1.13455 
1.30528 -1.32082 1.13548 
1.3261 -1.32482 1.12792 
1.35197 -1.31223 1.12227 
1.35292 -1.31785 1.10015 
1.32735 -1.33214 1.0991 
1.3274 -1.3323 1.0957 
1.35297 -1.31801 1.09755 
1.35295 -1.31766 1.09465 
1.32736 -1.33169 1.09187 
1.32718 -1.33005 1.08909 
1.35283 -1.31656 1.09255 
1.35258 -1.31449 1.09079 
1.32681 -1.32702 1.08672 
1.35232 -1.31239 1.0897 
1.32643 -1.32399 1.08522 
1.32368 -1.30249 1.07964 
1.35041 -1.29747 1.08583 
1.34872 -1.28756 1.12491 
1.32148 -1.28957 1.13055 
1.39089 -1.28974 1.1015 
1.39083 -1.28989 1.10929 
1.39106 -1.29123 1.10403 
1.39107 -1.29125 1.10341 
1.39106 -1.29114 1.10272 
1.39103 -1.29084 1.10221 
1.39096 -1.29029 1.10178 
1.39309 -1.28866 1.10251 
1.39304 -1.28809 1.10226 
1.39251 -1.29014 1.10444 
1.39275 -1.28999 1.10392 
1.39298 -1.28969 1.10333 
1.39309 -1.28928 1.10289 
1.3932 -1.28945 1.10525 
1.39357 -1.28916 1.10491 
1.39393 -1.28872 1.10451 
1.39411 -1.28822 1.10419 
1.39416 -1.28755 1.10389 
1.39342 -1.28899 1.10637 
1.39382 -1.2886 1.10629 
1.39422 -1.28805 1.10617 
1.39443 -1.28749 1.10603 
1.39448 -1.28678 1.10586 
1.32554 -1.32099 1.13404 
1.35156 -1.30945 1.12701 
1.3518 -1.31114 1.12463 
1.32588 -1.32334 1.13098 
1.32466 -1.31444 1.13629 
1.35094 -1.30483 1.12884 
1.35129 -1.30749 1.12831 
1.32516 -1.31823 1.13568 
1.32422 -1.31107 1.13612 
1.35063 -1.30248 1.12878 
1.39049 -1.28738 1.11079 
1.39073 -1.28919 1.11041 
1.39079 -1.28962 1.10985 
1.39057 -1.288 1.11082 
1.39066 -1.28869 1.11071 
1.39272 -1.28625 1.10951 
1.39279 -1.28687 1.10957 
1.39253 -1.28871 1.10894 
1.39233 -1.2891 1.10853 
1.39272 -1.28816 1.10933 
1.3928 -1.28759 1.10953 
1.39344 -1.28844 1.10775 
1.3931 -1.28886 1.10755 
1.39378 -1.28785 1.10792 
1.39395 -1.28726 1.10797 
1.39399 -1.28653 1.10792 
1.40036 -1.24442 0.898556 
1.39992 -1.24574 0.900196 
1.39933 -1.2463 0.900788 
1.39864 -1.24688 0.901379 
1.39637 -1.24777 0.901995 
1.39645 -1.24197 0.894356 
1.39871 -1.24235 0.895409 
1.39938 -1.24277 0.896131 
1.39995 -1.24319 0.896834 
1.32813 -1.28581 0.898188 
1.3286 -1.28789 0.895796 
1.32909 -1.28963 0.892697 
1.32941 -1.29 0.889874 
1.32964 -1.28914 0.886402 
1.32976 -1.28775 0.88351 
1.33001 -1.26989 0.85995 
1.32994 -1.26748 0.857836 
1.32976 -1.26437 0.856063 
1.32948 -1.26154 0.855658 
1.32901 -1.25809 0.856486 
1.32856 -1.25522 0.857842 
1.32529 -1.23764 0.871133 
1.32486 -1.26823 0.911479 
1.31237 -1.29052 0.894792 
1.31233 -1.28973 0.894229 
1.31186 -1.28764 0.896622 
1.31187 -1.28831 0.897332 
1.30859 -1.27007 0.909913 
1.30859 -1.27066 0.910682 
1.30903 -1.2389 0.868796 
1.30902 -1.23948 0.869566 
1.31229 -1.25706 0.856275 
1.31231 -1.25655 0.855446 
1.31275 -1.25993 0.85492 
1.3128 -1.2596 0.854007 
1.31322 -1.26338 0.854091 
1.31331 -1.26333 0.853113 
1.31349 -1.2662 0.854497 
1.31362 -1.26652 0.853571 
1.31368 -1.26932 0.856269 
1.31381 -1.26987 0.855483 
1.31374 -1.27173 0.858384 
1.31389 -1.27243 0.857728 
1.3135 -1.2896 0.881944 
1.31364 -1.29042 0.881446 
1.31338 -1.29098 0.884835 
1.31351 -1.29189 0.884516 
1.31314 -1.29184 0.888307 
1.31325 -1.29282 0.888262 
1.31282 -1.29147 0.891131 
1.3129 -1.29239 0.891449 
1.33347 -1.28817 0.883356 
1.35891 -1.27489 0.889356 
1.3591 -1.26108 0.871152 
1.33372 -1.27019 0.859638 
1.33365 -1.26763 0.857393 
1.35905 -1.25916 0.869398 
1.35891 -1.25667 0.867864 
1.33345 -1.26427 0.855481 
1.33313 -1.26108 0.855024 
1.3587 -1.25436 0.867412 
1.35835 -1.2517 0.867942 
1.33263 -1.25736 0.855917 
1.35801 -1.24956 0.868901 
1.33215 -1.25431 0.857357 
1.32886 -1.23665 0.870706 
1.35573 -1.2373 0.878168 
1.35539 -1.26168 0.910316 
1.32842 -1.26841 0.912592 
1.39666 -1.2431 0.893499 
1.3969 -1.24928 0.898241 
1.39695 -1.246 0.893915 
1.39693 -1.24553 0.893506 
1.3969 -1.24492 0.893156 
1.39684 -1.24434 0.893073 
1.39675 -1.24366 0.893236 
1.39888 -1.24313 0.894943 
1.39881 -1.24258 0.895233 
1.3984 -1.24559 0.895003 
1.39861 -1.24507 0.894794 
1.39882 -1.24442 0.894655 
1.3989 -1.24381 0.894701 
1.3991 -1.24576 0.896036 
1.39945 -1.2453 0.896043 
1.39979 -1.2447 0.896133 
1.39996 -1.24413 0.896324 
1.39998 -1.24348 0.896658 
1.39936 -1.24634 0.897093 
1.39976 -1.24601 0.897342 
1.40014 -1.24556 0.897688 
1.40033 -1.2451 0.898042 
1.40037 -1.24452 0.898483 
1.33309 -1.29057 0.890172 
1.35863 -1.27686 0.89449 
1.35881 -1.27605 0.891682 
1.33334 -1.28964 0.886426 
1.3322 -1.28828 0.896702 
1.35802 -1.27544 0.899246 
1.35839 -1.27667 0.896835 
1.33273 -1.29015 0.893359 
1.3317 -1.28607 0.899243 
1.35767 -1.27393 0.90105 
1.39658 -1.2489 0.901138 
1.39683 -1.24972 0.899483 
1.39688 -1.24955 0.8988 
1.39667 -1.2493 0.900675 
1.39677 -1.24964 0.900065 
1.39875 -1.24711 0.901203 
1.39882 -1.24754 0.900755 
1.39857 -1.2482 0.898919 
1.39836 -1.24814 0.898366 
1.39877 -1.24816 0.899593 
1.39884 -1.24795 0.900163 
1.39943 -1.24707 0.898378 
1.39908 -1.2472 0.897928 
1.39976 -1.24683 0.898938 
1.39992 -1.24649 0.899433 
1.39995 -1.24599 0.899971 
1.39764 -1.05606 0.802163 
1.39729 -1.05818 0.802158 
1.39673 -1.05901 0.802099 
1.39608 -1.05986 0.802028 
1.39384 -1.06098 0.801745 
1.39354 -1.05141 0.801503 
1.39584 -1.05237 0.801839 
1.39655 -1.05317 0.801953 
1.39715 -1.05396 0.802052 
1.32609 -1.08444 0.77047 
1.3265 -1.08385 0.767342 
1.3269 -1.0825 0.764047 
1.32711 -1.08052 0.761989 
1.3272 -1.07726 0.760495 
1.32719 -1.07413 0.759771 
1.32627 -1.04459 0.759025 
1.32608 -1.04144 0.759591 
1.32578 -1.03812 0.760919 
1.32544 -1.03605 0.762875 
1.32495 -1.03456 0.766099 
1.3245 -1.03385 0.769194 
1.32149 -1.03338 0.791258 
1.32307 -1.08398 0.792534 
1.31028 -1.08535 0.764857 
1.31021 -1.08442 0.765124 
1.30981 -1.08501 0.768251 
1.30985 -1.08597 0.768177 
1.30679 -1.08454 0.790316 
1.30682 -1.08551 0.79034 
1.30517 -1.03298 0.789015 
1.3052 -1.03395 0.789039 
1.30822 -1.03441 0.766975 
1.3082 -1.03345 0.766853 
1.30867 -1.03513 0.76388 
1.30868 -1.03421 0.763567 
1.30916 -1.03662 0.760656 
1.30921 -1.03582 0.760088 
1.3095 -1.03869 0.758701 
1.30959 -1.03815 0.757881 
1.30979 -1.04201 0.757372 
1.30991 -1.04173 0.756448 
1.30998 -1.04516 0.756807 
1.31011 -1.04508 0.755847 
1.31091 -1.0747 0.757552 
1.31104 -1.07482 0.756598 
1.31092 -1.07783 0.758276 
1.31105 -1.07814 0.757366 
1.31083 -1.08108 0.75977 
1.31096 -1.08165 0.758978 
1.31062 -1.08307 0.761828 
1.31071 -1.08389 0.761301 
1.3309 -1.07413 0.759302 
1.35634 -1.06952 0.773119 
1.35562 -1.04669 0.772543 
1.32996 -1.04439 0.758552 
1.32977 -1.04104 0.759152 
1.35548 -1.04413 0.772954 
1.35524 -1.04138 0.773942 
1.32944 -1.03746 0.760585 
1.32906 -1.03513 0.762793 
1.35497 -1.03959 0.77547 
1.3546 -1.03836 0.777882 
1.32853 -1.03352 0.766271 
1.35427 -1.03779 0.780162 
1.32806 -1.03276 0.769558 
1.32502 -1.03229 0.791719 
1.35217 -1.03746 0.795545 
1.35343 -1.07778 0.796562 
1.32667 -1.08482 0.793045 
1.39373 -1.05143 0.80008 
1.39425 -1.05898 0.798209 
1.39408 -1.05356 0.798073 
1.39405 -1.05294 0.798182 
1.39399 -1.05229 0.798443 
1.39392 -1.05187 0.798846 
1.39382 -1.05157 0.79948 
1.39601 -1.05249 0.800936 
1.39594 -1.05238 0.801546 
1.39557 -1.05409 0.799058 
1.39577 -1.0536 0.799327 
1.39596 -1.05307 0.799752 
1.39603 -1.05273 0.80025 
1.39631 -1.05498 0.799558 
1.39666 -1.05468 0.79992 
1.39699 -1.05436 0.800443 
1.39715 -1.05415 0.801001 
1.39718 -1.05401 0.80172 
1.39662 -1.05615 0.799766 
1.39702 -1.05613 0.800168 
1.39741 -1.0561 0.800732 
1.39761 -1.05608 0.801313 
1.39765 -1.05606 0.802041 
1.33081 -1.08096 0.761683 
1.35629 -1.07477 0.774785 
1.35635 -1.07206 0.773659 
1.33091 -1.07745 0.760071 
1.33014 -1.08466 0.767562 
1.35583 -1.07761 0.778872 
1.35613 -1.07649 0.776401 
1.33057 -1.0832 0.764006 
1.32971 -1.08528 0.770882 
1.35554 -1.0781 0.781179 
1.39404 -1.06102 0.800321 
1.39424 -1.06023 0.798644 
1.39425 -1.05958 0.798349 
1.39411 -1.0609 0.799716 
1.39419 -1.06063 0.799067 
1.39618 -1.05986 0.801734 
1.39624 -1.05978 0.801119 
1.39593 -1.05877 0.799457 
1.3957 -1.05831 0.799165 
1.39615 -1.05926 0.799908 
1.39625 -1.05958 0.800423 
1.39675 -1.05761 0.799994 
1.39639 -1.05735 0.799618 
1.3971 -1.05788 0.800532 
1.39728 -1.05805 0.8011 
1.39731 -1.05816 0.801825 
1.38838 -0.863409 0.889231 
1.38805 -0.864744 0.887573 
1.38751 -0.86524 0.886894 
1.38686 -0.865739 0.886195 
1.38463 -0.866308 0.885166 
1.38418 -0.860154 0.892504 
1.38651 -0.86093 0.89193 
1.38723 -0.86149 0.891366 
1.38785 -0.862035 0.890803 
1.3161 -0.859202 0.848144 
1.31638 -0.856382 0.846644 
1.31663 -0.852945 0.845642 
1.31673 -0.850092 0.845905 
1.31672 -0.846894 0.847517 
1.31663 -0.844377 0.849508 
1.31523 -0.825401 0.872139 
1.31501 -0.823882 0.874957 
1.31472 -0.822859 0.878381 
1.31443 -0.823113 0.881221 
1.31404 -0.824717 0.884403 
1.3137 -0.826703 0.886899 
1.31152 -0.843758 0.901063 
1.31392 -0.876252 0.862309 
1.3001 -0.856014 0.84412 
1.30003 -0.855643 0.845014 
1.29975 -0.858468 0.846513 
1.29981 -0.859011 0.845711 
1.29758 -0.875518 0.860678 
1.29762 -0.876138 0.859939 
1.29512 -0.842399 0.900173 
1.29517 -0.843019 0.899433 
1.29735 -0.825969 0.885268 
1.29732 -0.825272 0.885945 
1.29769 -0.823978 0.882773 
1.29767 -0.823161 0.883296 
1.29808 -0.822374 0.87959 
1.29809 -0.821431 0.879861 
1.29838 -0.822125 0.876751 
1.29843 -0.821148 0.876657 
1.29867 -0.823148 0.873326 
1.29875 -0.822251 0.872962 
1.29888 -0.824667 0.870508 
1.29897 -0.82386 0.86997 
1.30028 -0.843642 0.847878 
1.30038 -0.842965 0.847187 
1.30037 -0.846155 0.845887 
1.30047 -0.845635 0.845074 
1.30039 -0.849358 0.844274 
1.30049 -0.849091 0.843334 
1.30028 -0.852211 0.844013 
1.30038 -0.852308 0.843038 
1.32031 -0.843861 0.849175 
1.34619 -0.850766 0.86109 
1.34511 -0.836103 0.878576 
1.3189 -0.824756 0.871957 
1.31868 -0.823147 0.874949 
1.34494 -0.834827 0.88084 
1.34471 -0.833897 0.883605 
1.31836 -0.822044 0.878645 
1.31802 -0.822327 0.881849 
1.34447 -0.833986 0.885958 
1.34417 -0.835115 0.888428 
1.3176 -0.824057 0.885283 
1.34392 -0.836548 0.890306 
1.31725 -0.826168 0.887932 
1.31506 -0.843299 0.90216 
1.3424 -0.848436 0.900182 
1.34432 -0.874333 0.869301 
1.31755 -0.877034 0.861926 
1.38432 -0.859055 0.89159 
1.38488 -0.862283 0.884521 
1.38462 -0.858796 0.888676 
1.38458 -0.858501 0.889222 
1.38452 -0.858302 0.889896 
1.38446 -0.858352 0.890481 
1.38439 -0.85867 0.891107 
1.38664 -0.86029 0.891272 
1.38659 -0.860698 0.891742 
1.38615 -0.859842 0.888856 
1.38636 -0.859735 0.889406 
1.38655 -0.859729 0.890081 
1.38664 -0.859903 0.890659 
1.38693 -0.860754 0.888466 
1.38728 -0.860838 0.888921 
1.38763 -0.861033 0.889492 
1.38781 -0.861333 0.890003 
1.38787 -0.8618 0.890565 
1.38726 -0.861638 0.887675 
1.38768 -0.861921 0.887939 
1.38809 -0.862328 0.888306 
1.38831 -0.862761 0.888683 
1.38838 -0.863313 0.889152 
1.32042 -0.849987 0.845321 
1.34629 -0.855344 0.858029 
1.34627 -0.852777 0.859436 
1.3204 -0.846531 0.847062 
1.32004 -0.856909 0.846107 
1.34604 -0.86033 0.858359 
1.34622 -0.857684 0.857695 
1.32031 -0.853204 0.845026 
1.31974 -0.859907 0.847699 
1.34583 -0.86244 0.859425 
1.38478 -0.865208 0.884252 
1.3849 -0.863397 0.883819 
1.3849 -0.862766 0.884136 
1.38483 -0.864662 0.883961 
1.38488 -0.863986 0.883765 
1.38695 -0.865506 0.886007 
1.38699 -0.86497 0.885689 
1.3866 -0.86306 0.885443 
1.38635 -0.862547 0.885626 
1.38685 -0.863707 0.885337 
1.38697 -0.864301 0.885414 
1.38742 -0.862718 0.886679 
1.38704 -0.862281 0.886649 
1.3878 -0.863294 0.886798 
1.388 -0.863837 0.887016 
1.38806 -0.864466 0.887383 
1.37953 -0.811542 1.0942 
1.37916 -0.811095 1.09212 
1.3786 -0.810893 1.09132 
1.37794 -0.810685 1.0905 
1.37568 -0.810323 1.08944 
1.37542 -0.81223 1.09883 
1.37773 -0.812174 1.09784 
1.37844 -0.812055 1.09705 
1.37905 -0.811931 1.09626 
1.30568 -0.779696 1.07272 
1.30586 -0.776755 1.07399 
1.30602 -0.773823 1.07604 
1.30609 -0.772243 1.07843 
1.30608 -0.771507 1.08194 
1.30604 -0.771494 1.08515 
1.30522 -0.777373 1.11412 
1.30508 -0.778635 1.11706 
1.30491 -0.780677 1.12 
1.30473 -0.783065 1.12158 
1.30449 -0.786563 1.12232 
1.30427 -0.789764 1.12233 
1.3029 -0.811545 1.11787 
1.3043 -0.801478 1.06826 
1.28949 -0.775199 1.07289 
1.28945 -0.775668 1.07374 
1.28927 -0.77861 1.07248 
1.28931 -0.778322 1.07155 
1.28789 -0.800392 1.06802 
1.28792 -0.800199 1.06707 
1.28646 -0.810651 1.11857 
1.28649 -0.810459 1.11762 
1.28787 -0.788678 1.12208 
1.28784 -0.788774 1.12305 
1.28808 -0.785477 1.12207 
1.28807 -0.785376 1.12304 
1.28832 -0.781978 1.12134 
1.28833 -0.7816 1.12224 
1.2885 -0.779591 1.11976 
1.28853 -0.778906 1.12046 
1.28868 -0.777544 1.11682 
1.28873 -0.776701 1.11729 
1.28881 -0.776287 1.11387 
1.28887 -0.775362 1.11416 
1.28963 -0.770408 1.08491 
1.28969 -0.76944 1.085 
1.28968 -0.770416 1.0817 
1.28974 -0.769453 1.0816 
1.28968 -0.771157 1.07819 
1.28975 -0.770251 1.07781 
1.28961 -0.772737 1.0758 
1.28967 -0.772032 1.07511 
1.30969 -0.770768 1.0853 
1.33611 -0.783356 1.08703 
1.33548 -0.787895 1.10941 
1.30887 -0.776686 1.11446 
1.30873 -0.778024 1.11759 
1.33538 -0.788874 1.11182 
1.33524 -0.790461 1.11428 
1.30854 -0.78023 1.12076 
1.30834 -0.782924 1.12254 
1.33509 -0.792359 1.11568 
1.33491 -0.795005 1.11634 
1.30807 -0.7867 1.12334 
1.33475 -0.797372 1.1164 
1.30785 -0.790098 1.12335 
1.30646 -0.811975 1.11887 
1.33379 -0.81256 1.11329 
1.33491 -0.804539 1.07376 
1.30793 -0.801523 1.06737 
1.3755 -0.810826 1.09912 
1.37584 -0.8073 1.09218 
1.37569 -0.808376 1.0975 
1.37567 -0.808621 1.09807 
1.37563 -0.809024 1.09865 
1.37559 -0.809518 1.09898 
1.37555 -0.810203 1.09912 
1.37783 -0.811257 1.09793 
1.37781 -0.81188 1.0979 
1.37724 -0.80911 1.09678 
1.37747 -0.809467 1.0972 
1.37769 -0.809981 1.09762 
1.3778 -0.810536 1.09785 
1.37802 -0.809344 1.09581 
1.37839 -0.809738 1.09603 
1.37876 -0.81029 1.09623 
1.37897 -0.810867 1.09631 
1.37905 -0.811601 1.09629 
1.37833 -0.809267 1.09463 
1.37876 -0.80963 1.09456 
1.3792 -0.810157 1.09447 
1.37944 -0.810708 1.09436 
1.37953 -0.811422 1.09422 
1.30975 -0.771575 1.07811 
1.33617 -0.783813 1.08154 
1.33616 -0.783312 1.08442 
1.30975 -0.770776 1.08189 
1.3095 -0.776522 1.07319 
1.336 -0.787195 1.07785 
1.33612 -0.78502 1.0795 
1.30967 -0.773356 1.07541 
1.30931 -0.779646 1.07185 
1.33587 -0.789351 1.07687 
1.37577 -0.808919 1.08973 
1.37585 -0.807448 1.09087 
1.37585 -0.8073 1.09156 
1.37581 -0.808349 1.08998 
1.37584 -0.807769 1.09038 
1.37802 -0.810391 1.09056 
1.37803 -0.809807 1.09078 
1.37761 -0.808434 1.09213 
1.37736 -0.80827 1.09265 
1.37786 -0.808746 1.09155 
1.37799 -0.809172 1.09114 
1.37847 -0.809157 1.09316 
1.37808 -0.808873 1.09349 
1.37886 -0.809594 1.09278 
1.37908 -0.810094 1.09249 
1.37917 -0.81077 1.09222 
1.37777 -0.939506 1.26272 
1.37732 -0.937627 1.26179 
1.37672 -0.936896 1.26145 
1.37602 -0.936153 1.26111 
1.37372 -0.93519 1.26076 
1.37385 -0.943721 1.26513 
1.37612 -0.94282 1.26453 
1.3768 -0.942096 1.26411 
1.37737 -0.941379 1.26371 
1.30268 -0.905793 1.2751 
1.30285 -0.904941 1.27818 
1.30305 -0.904705 1.28176 
1.30319 -0.905585 1.28448 
1.30331 -0.907862 1.28725 
1.30338 -0.91036 1.28926 
1.30376 -0.93667 1.30275 
1.30377 -0.939759 1.3036 
1.30373 -0.943337 1.30384 
1.30365 -0.946065 1.30296 
1.30349 -0.948834 1.30069 
1.30332 -0.950848 1.2982 
1.30211 -0.96101 1.27841 
1.30146 -0.915955 1.25531 
1.28644 -0.903759 1.27892 
1.28644 -0.904715 1.27908 
1.28626 -0.905572 1.27599 
1.28625 -0.904664 1.27564 
1.28504 -0.915734 1.25621 
1.28503 -0.914874 1.25577 
1.2857 -0.961645 1.27975 
1.28569 -0.960784 1.27931 
1.2869 -0.950623 1.29909 
1.28692 -0.95144 1.29962 
1.28707 -0.948614 1.30159 
1.2871 -0.949301 1.30227 
1.28723 -0.945845 1.30386 
1.28727 -0.946317 1.30472 
1.28731 -0.943117 1.30474 
1.28736 -0.943235 1.30571 
1.28735 -0.939539 1.3045 
1.2874 -0.939375 1.30545 
1.28735 -0.936445 1.30364 
1.2874 -0.936095 1.30455 
1.28696 -0.91014 1.29015 
1.28701 -0.909607 1.29097 
1.28689 -0.907641 1.28814 
1.28694 -0.906956 1.28883 
1.28677 -0.90536 1.28538 
1.28681 -0.904498 1.28585 
1.28663 -0.904484 1.28265 
1.28665 -0.903508 1.28277 
1.30703 -0.909879 1.28988 
1.33369 -0.918036 1.2808 
1.33398 -0.938367 1.29122 
1.30742 -0.936366 1.30346 
1.30742 -0.939646 1.30436 
1.33399 -0.940863 1.29196 
1.33397 -0.943771 1.29226 
1.30738 -0.943506 1.30462 
1.30729 -0.946584 1.30363 
1.3339 -0.946059 1.29165 
1.33378 -0.948233 1.29 
1.30712 -0.949573 1.30118 
1.33366 -0.949763 1.28819 
1.30694 -0.951711 1.29853 
1.30572 -0.961916 1.27866 
1.33281 -0.956848 1.27439 
1.3323 -0.92095 1.25598 
1.30505 -0.915145 1.25468 
1.37393 -0.943063 1.26641 
1.37394 -0.935436 1.26483 
1.37401 -0.940264 1.2673 
1.37401 -0.940861 1.26747 
1.37401 -0.941569 1.26752 
1.37399 -0.942129 1.26734 
1.37396 -0.942675 1.26689 
1.37621 -0.942311 1.2653 
1.3762 -0.942679 1.26479 
1.37554 -0.940099 1.26626 
1.37579 -0.940641 1.26625 
1.37604 -0.941284 1.2661 
1.37617 -0.941801 1.26581 
1.37629 -0.939458 1.26547 
1.37667 -0.939857 1.26529 
1.37706 -0.940342 1.26498 
1.37728 -0.94076 1.26457 
1.37737 -0.941197 1.26399 
1.37655 -0.93847 1.26478 
1.37699 -0.938633 1.26445 
1.37743 -0.938872 1.26398 
1.37767 -0.939122 1.26348 
1.37777 -0.939453 1.26283 
1.30683 -0.904769 1.28476 
1.33354 -0.914039 1.27701 
1.33363 -0.915977 1.27921 
1.30695 -0.907228 1.28774 
1.30646 -0.90403 1.27783 
1.33328 -0.913277 1.27208 
1.33343 -0.913205 1.2748 
1.30667 -0.90378 1.28168 
1.30627 -0.904936 1.27455 
1.33314 -0.913865 1.26978 
1.3738 -0.934532 1.26203 
1.3739 -0.9345 1.26389 
1.37393 -0.934949 1.26444 
1.37384 -0.934369 1.26263 
1.37388 -0.93432 1.26333 
1.3761 -0.936012 1.26137 
1.37612 -0.93582 1.26197 
1.37572 -0.936034 1.26388 
1.37549 -0.936343 1.26434 
1.37596 -0.935768 1.26328 
1.37608 -0.935702 1.26268 
1.37664 -0.937248 1.26395 
1.37626 -0.937346 1.26438 
1.37702 -0.937211 1.26337 
1.37723 -0.937286 1.26279 
1.37732 -0.937498 1.2621 
1.38442 -1.15095 1.26791 
1.3839 -1.14906 1.2688 
1.38328 -1.14837 1.26917 
1.38256 -1.14767 1.26955 
1.38024 -1.14688 1.27011 
1.38066 -1.15561 1.26617 
1.38289 -1.15449 1.26647 
1.38354 -1.15369 1.26677 
1.38409 -1.1529 1.26707 
1.30935 -1.14254 1.30288 
1.30964 -1.14441 1.30547 
1.30997 -1.14704 1.30788 
1.31022 -1.14971 1.3089 
1.31048 -1.15329 1.30884 
1.31067 -1.15641 1.30814 
1.31197 -1.18334 1.296 
1.31205 -1.18594 1.29412 
1.31208 -1.18835 1.29147 
1.312 -1.18938 1.28879 
1.3118 -1.18934 1.28521 
1.31157 -1.18865 1.28209 
1.30975 -1.1796 1.26182 
1.30753 -1.13348 1.28261 
1.29324 -1.14489 1.30705 
1.29326 -1.14562 1.3064 
1.29298 -1.14375 1.30381 
1.29294 -1.14291 1.3043 
1.29116 -1.13469 1.28354 
1.29112 -1.13381 1.28394 
1.29342 -1.18169 1.26235 
1.29338 -1.1808 1.26275 
1.2952 -1.18986 1.28302 
1.29525 -1.19078 1.28271 
1.29542 -1.19055 1.28614 
1.29549 -1.1915 1.28603 
1.29563 -1.19059 1.28972 
1.29571 -1.19155 1.28989 
1.2957 -1.18956 1.2924 
1.2958 -1.19039 1.29291 
1.29568 -1.18715 1.29505 
1.29577 -1.18779 1.29577 
1.29559 -1.18455 1.29693 
1.29568 -1.18503 1.29777 
1.2943 -1.15762 1.30907 
1.29437 -1.15792 1.30999 
1.29411 -1.1545 1.30977 
1.29417 -1.1546 1.31073 
1.29385 -1.15092 1.30983 
1.29389 -1.15075 1.31079 
1.29359 -1.14825 1.30881 
1.2936 -1.14773 1.30965 
1.31433 -1.15645 1.30886 
1.34074 -1.15341 1.2965 
1.34174 -1.17421 1.28711 
1.31564 -1.18356 1.29663 
1.31573 -1.18632 1.29463 
1.34182 -1.17635 1.28563 
1.34185 -1.1784 1.28354 
1.31576 -1.18892 1.29178 
1.31567 -1.19008 1.28876 
1.3418 -1.17935 1.28137 
1.34165 -1.17942 1.27864 
1.31545 -1.19003 1.28489 
1.34148 -1.17896 1.27632 
1.31521 -1.18931 1.28158 
1.31338 -1.18021 1.26122 
1.34021 -1.17265 1.26219 
1.33844 -1.13591 1.27876 
1.31108 -1.13234 1.28281 
1.38077 -1.1562 1.26748 
1.38061 -1.15021 1.27245 
1.38085 -1.15515 1.27022 
1.38087 -1.15565 1.26986 
1.38087 -1.15613 1.26934 
1.38086 -1.15634 1.26879 
1.38082 -1.15633 1.26808 
1.383 -1.15477 1.26734 
1.38297 -1.15461 1.26674 
1.38234 -1.15417 1.26969 
1.38259 -1.15449 1.26925 
1.38284 -1.15477 1.26865 
1.38297 -1.15485 1.26806 
1.38304 -1.15312 1.26968 
1.38343 -1.15321 1.26925 
1.38381 -1.15326 1.26867 
1.38402 -1.15319 1.26809 
1.3841 -1.15301 1.26739 
1.38327 -1.15196 1.27002 
1.38369 -1.15179 1.26968 
1.38411 -1.15155 1.2692 
1.38434 -1.1513 1.26868 
1.38442 -1.151 1.26802 
1.31385 -1.14927 1.30966 
1.34038 -1.14796 1.29726 
1.34059 -1.15088 1.29711 
1.31413 -1.15313 1.3096 
1.31321 -1.14342 1.30592 
1.33992 -1.14364 1.29478 
1.34018 -1.14572 1.29654 
1.31357 -1.14626 1.30852 
1.3129 -1.14143 1.30317 
1.33971 -1.14222 1.29289 
1.38035 -1.14746 1.27141 
1.38053 -1.14889 1.2726 
1.38058 -1.1496 1.27259 
1.38041 -1.14783 1.27192 
1.38047 -1.14835 1.27239 
1.38265 -1.14779 1.26982 
1.38268 -1.14813 1.27034 
1.38237 -1.14977 1.27137 
1.38215 -1.15033 1.27142 
1.38257 -1.14912 1.2712 
1.38267 -1.14861 1.27088 
1.3833 -1.15054 1.27046 
1.38294 -1.15096 1.27065 
1.38366 -1.15005 1.27012 
1.38385 -1.14964 1.2697 
1.38391 -1.14923 1.26909 
1.34476 -1.30073 1.02217 
1.34427 -1.30097 1.02425 
1.34367 -1.30112 1.02503 
1.34296 -1.30128 1.02582 
1.34066 -1.30167 1.02677 
1.34096 -1.30083 1.01722 
1.3432 -1.30062 1.01836 
1.34385 -1.3006 1.01922 
1.3444 -1.30059 1.02005 
1.27159 -1.33497 1.04223 
1.27203 -1.33802 1.04132 
1.27253 -1.34114 1.03963 
1.27286 -1.34296 1.03745 
1.27316 -1.34408 1.03405 
1.27335 -1.34445 1.03087 
1.2743 -1.34186 1.00143 
1.27431 -1.34094 0.998358 
1.27423 -1.33925 0.995199 
1.27402 -1.33707 0.993349 
1.27362 -1.33369 0.992202 
1.27321 -1.33054 0.991814 
1.2702 -1.30854 0.993652 
1.26858 -1.31298 1.04407 
1.25576 -1.34056 1.0415 
1.25575 -1.34019 1.04061 
1.2553 -1.33714 1.04151 
1.25529 -1.33733 1.04247 
1.25229 -1.31515 1.04335 
1.25227 -1.31523 1.04431 
1.25395 -1.31063 0.991975 
1.25392 -1.31071 0.992938 
1.25693 -1.33271 0.991098 
1.25697 -1.33272 0.990129 
1.25733 -1.33586 0.991488 
1.2574 -1.33607 0.990541 
1.25773 -1.33924 0.992634 
1.25783 -1.33971 0.991779 
1.25794 -1.34141 0.994484 
1.25807 -1.34217 0.993867 
1.25803 -1.34311 0.997643 
1.25816 -1.344 0.997275 
1.25801 -1.34403 1.00072 
1.25815 -1.34498 1.00054 
1.25707 -1.34662 1.03016 
1.2572 -1.34758 1.03017 
1.25688 -1.34625 1.03334 
1.257 -1.34719 1.03355 
1.25658 -1.34514 1.03673 
1.25668 -1.34599 1.03721 
1.25624 -1.34331 1.03892 
1.25629 -1.34393 1.03968 
1.27705 -1.34494 1.03105 
1.30272 -1.33085 1.02964 
1.30345 -1.32884 1.00689 
1.278 -1.34233 1.00141 
1.27802 -1.34135 0.998147 
1.30346 -1.32814 1.00438 
1.30341 -1.32685 1.00176 
1.27792 -1.33953 0.994739 
1.27769 -1.33707 0.992651 
1.30325 -1.32513 1.00014 
1.30296 -1.32259 0.999169 
1.27726 -1.33343 0.991413 
1.30266 -1.32027 0.998832 
1.27683 -1.33007 0.991 
1.2738 -1.30798 0.992848 
1.30056 -1.30493 1.00011 
1.29927 -1.30846 1.04029 
1.27212 -1.31259 1.04519 
1.34116 -1.30225 1.0171 
1.3412 -1.30496 1.02441 
1.34137 -1.30448 1.019 
1.34137 -1.30431 1.01841 
1.34136 -1.30397 1.01779 
1.34131 -1.30352 1.0174 
1.34124 -1.30286 1.01718 
1.34336 -1.30153 1.01839 
1.3433 -1.30091 1.01834 
1.34282 -1.30358 1.01974 
1.34305 -1.30325 1.01929 
1.34327 -1.30277 1.01883 
1.34337 -1.30224 1.01855 
1.34351 -1.30318 1.02072 
1.34387 -1.30279 1.02049 
1.34422 -1.30224 1.02025 
1.3444 -1.30166 1.02012 
1.34443 -1.30093 1.02005 
1.34373 -1.30311 1.02193 
1.34414 -1.30271 1.02197 
1.34453 -1.30215 1.02204 
1.34473 -1.30157 1.02209 
1.34478 -1.30084 1.02216 
1.27653 -1.34334 1.03809 
1.30234 -1.32978 1.03503 
1.30257 -1.3306 1.03223 
1.27685 -1.34455 1.03442 
1.27562 -1.33791 1.04238 
1.3017 -1.32604 1.03828 
1.30207 -1.32837 1.03691 
1.27615 -1.34129 1.04055 
1.27514 -1.33468 1.04334 
1.30137 -1.3238 1.039 
1.34085 -1.30309 1.02665 
1.3411 -1.30467 1.02569 
1.34116 -1.30489 1.02502 
1.34094 -1.30368 1.02647 
1.34103 -1.30429 1.02614 
1.34305 -1.30157 1.0258 
1.34313 -1.30217 1.02565 
1.34288 -1.30371 1.02445 
1.34268 -1.30394 1.02394 
1.34307 -1.30331 1.025 
1.34315 -1.30284 1.02537 
1.34378 -1.30305 1.0234 
1.34343 -1.30339 1.02308 
1.34411 -1.30254 1.02375 
1.34427 -1.302 1.024 
1.3443 -1.3013 1.02419 
1.34769 -1.18986 0.835973 
1.34729 -1.19165 0.83709 
1.34671 -1.19238 0.837469 
1.34604 -1.19313 0.837844 
1.34378 -1.1942 0.838152 
1.34371 -1.18621 0.83285 
1.34598 -1.18688 0.833699 
1.34667 -1.18751 0.834237 
1.34725 -1.18814 0.834755 
1.27587 -1.22977 0.822611 
1.27633 -1.23094 0.819661 
1.2768 -1.23156 0.81616 
1.27708 -1.23097 0.813368 
1.27727 -1.22901 0.810373 
1.27734 -1.22675 0.808099 
1.27712 -1.20212 0.791743 
1.277 -1.19914 0.790542 
1.27676 -1.19562 0.789896 
1.27645 -1.19283 0.790447 
1.27596 -1.18984 0.792372 
1.2755 -1.18759 0.794602 
1.27222 -1.17542 0.812971 
1.2726 -1.2176 0.84098 
1.26011 -1.23331 0.817988 
1.26006 -1.23238 0.817717 
1.25961 -1.23121 0.820668 
1.25963 -1.23207 0.82112 
1.25634 -1.21904 0.839036 
1.25634 -1.21984 0.83957 
1.25595 -1.17605 0.810492 
1.25596 -1.17686 0.811027 
1.25923 -1.18903 0.792658 
1.25924 -1.18828 0.792042 
1.25969 -1.19128 0.790428 
1.25973 -1.19067 0.789674 
1.26019 -1.19427 0.788502 
1.26026 -1.19389 0.787596 
1.2605 -1.19706 0.787952 
1.26061 -1.19705 0.786976 
1.26073 -1.20058 0.788597 
1.26087 -1.20085 0.787672 
1.26085 -1.20355 0.789799 
1.26099 -1.204 0.788947 
1.26108 -1.22819 0.806155 
1.26122 -1.2288 0.805413 
1.261 -1.23045 0.808428 
1.26114 -1.2312 0.807827 
1.26082 -1.23241 0.811424 
1.26094 -1.23332 0.811059 
1.26054 -1.23299 0.814215 
1.26063 -1.23397 0.814209 
1.28105 -1.22704 0.807783 
1.30643 -1.21614 0.817605 
1.30626 -1.19711 0.804967 
1.28083 -1.20225 0.791317 
1.2807 -1.19909 0.790042 
1.30616 -1.19471 0.803947 
1.30599 -1.19186 0.80332 
1.28045 -1.19529 0.789346 
1.28009 -1.19214 0.789966 
1.30574 -1.18953 0.803657 
1.30537 -1.1872 0.805037 
1.27956 -1.18892 0.792044 
1.30503 -1.1855 0.806653 
1.27907 -1.18652 0.794412 
1.27578 -1.1743 0.812863 
1.30275 -1.17701 0.81946 
1.30305 -1.21062 0.841778 
1.27617 -1.21809 0.841941 
1.34392 -1.187 0.831664 
1.34428 -1.19439 0.834103 
1.34424 -1.18987 0.831099 
1.34422 -1.18929 0.830867 
1.34417 -1.1886 0.83074 
1.34411 -1.18802 0.830853 
1.34401 -1.18744 0.831232 
1.34616 -1.18747 0.833 
1.34608 -1.18704 0.833456 
1.3457 -1.18982 0.832251 
1.34591 -1.18926 0.832221 
1.3461 -1.18859 0.832306 
1.34618 -1.18804 0.832547 
1.34642 -1.19031 0.833163 
1.34677 -1.18987 0.833319 
1.3471 -1.18933 0.833599 
1.34726 -1.18885 0.833964 
1.34729 -1.18835 0.834495 
1.3467 -1.1912 0.833969 
1.34709 -1.19097 0.834307 
1.34748 -1.19065 0.834779 
1.34767 -1.19033 0.835264 
1.34771 -1.18993 0.835871 
1.28077 -1.23156 0.813429 
1.30624 -1.2197 0.821804 
1.30638 -1.21801 0.819417 
1.28097 -1.22945 0.810198 
1.27995 -1.23156 0.820358 
1.30566 -1.21993 0.826769 
1.30602 -1.22029 0.824084 
1.28046 -1.23222 0.81658 
1.27946 -1.23031 0.823491 
1.30533 -1.21911 0.828971 
1.34399 -1.19499 0.836967 
1.34423 -1.19521 0.835132 
1.34427 -1.19483 0.834543 
1.34408 -1.19521 0.836396 
1.34417 -1.19533 0.835707 
1.34614 -1.19329 0.8376 
1.34621 -1.19354 0.837036 
1.34595 -1.19357 0.835085 
1.34573 -1.19333 0.834585 
1.34615 -1.19375 0.835733 
1.34623 -1.19374 0.836338 
1.34679 -1.19231 0.83494 
1.34644 -1.19229 0.834476 
1.34713 -1.19226 0.835547 
1.34729 -1.1921 0.836123 
1.34732 -1.19181 0.836795 
1.3418 -0.975244 0.806384 
1.34146 -0.977253 0.805683 
1.34091 -0.978027 0.805359 
1.34026 -0.978813 0.805017 
1.33804 -0.979812 0.804399 
1.33764 -0.970692 0.807331 
1.33995 -0.971684 0.807309 
1.34067 -0.972469 0.807146 
1.34128 -0.973238 0.806974 
1.27013 -0.992549 0.76773 
1.27049 -0.990964 0.764967 
1.27084 -0.988591 0.762299 
1.271 -0.986037 0.761008 
1.27104 -0.982469 0.760671 
1.27099 -0.979281 0.761017 
1.26977 -0.951157 0.770061 
1.26956 -0.948366 0.771635 
1.26925 -0.94568 0.773985 
1.26892 -0.944376 0.776516 
1.26845 -0.944037 0.780055 
1.26804 -0.94439 0.783217 
1.26529 -0.951263 0.804225 
1.26738 -0.999428 0.788739 
1.25426 -0.991775 0.762268 
1.25419 -0.990984 0.762827 
1.25383 -0.992574 0.765591 
1.25388 -0.993461 0.765202 
1.25108 -0.999448 0.786599 
1.25112 -1.00036 0.786304 
1.24894 -0.950362 0.802381 
1.24898 -0.951283 0.802085 
1.25173 -0.944409 0.781077 
1.2517 -0.943459 0.781279 
1.25215 -0.944057 0.777916 
1.25214 -0.943086 0.777923 
1.25261 -0.9444 0.774376 
1.25264 -0.943452 0.774104 
1.25294 -0.9457 0.771845 
1.25302 -0.944923 0.771247 
1.25326 -0.948391 0.769496 
1.25336 -0.947824 0.768712 
1.25347 -0.951177 0.767921 
1.25358 -0.950786 0.76704 
1.25469 -0.979301 0.758877 
1.25481 -0.979096 0.757936 
1.25474 -0.982488 0.758531 
1.25486 -0.982484 0.757568 
1.2547 -0.986062 0.758868 
1.25482 -0.986335 0.757932 
1.25453 -0.988611 0.760159 
1.25464 -0.989215 0.759389 
1.27469 -0.979071 0.760545 
1.30026 -0.978933 0.774887 
1.29931 -0.957203 0.781875 
1.27346 -0.95076 0.769649 
1.27324 -0.947798 0.77132 
1.29915 -0.954918 0.78311 
1.29891 -0.952654 0.78495 
1.2729 -0.944897 0.773856 
1.27252 -0.943427 0.776712 
1.29864 -0.951472 0.786984 
1.29828 -0.951111 0.789669 
1.27202 -0.943061 0.780531 
1.29798 -0.951322 0.792015 
1.27158 -0.943434 0.783888 
1.26882 -0.950337 0.80499 
1.29606 -0.956118 0.806662 
1.29773 -0.994493 0.794322 
1.271 -1.00034 0.788912 
1.33782 -0.970246 0.805975 
1.33838 -0.976746 0.801718 
1.33816 -0.971584 0.803378 
1.33812 -0.971045 0.803683 
1.33806 -0.970516 0.804146 
1.33799 -0.970246 0.804667 
1.3379 -0.970182 0.805363 
1.34011 -0.971497 0.806416 
1.34005 -0.97159 0.80703 
1.33966 -0.972391 0.80412 
1.33986 -0.972012 0.804534 
1.34005 -0.971652 0.805107 
1.34013 -0.971492 0.805691 
1.34042 -0.973385 0.804293 
1.34077 -0.973221 0.804731 
1.3411 -0.973086 0.805326 
1.34127 -0.973066 0.805921 
1.34131 -0.973165 0.806648 
1.34074 -0.974556 0.8041 
1.34115 -0.974662 0.804484 
1.34155 -0.974817 0.805021 
1.34175 -0.974987 0.805574 
1.34181 -0.97521 0.806269 
1.2747 -0.98631 0.76054 
1.30029 -0.984441 0.774729 
1.30031 -0.981519 0.774557 
1.27475 -0.982459 0.760176 
1.27414 -0.99175 0.764876 
1.29991 -0.988479 0.777654 
1.30016 -0.986596 0.77569 
1.27451 -0.989189 0.761998 
1.27376 -0.993436 0.76781 
1.29964 -0.989697 0.779675 
1.33821 -0.979366 0.803043 
1.33839 -0.97807 0.801717 
1.33839 -0.977367 0.801651 
1.33828 -0.979058 0.802509 
1.33835 -0.978592 0.801983 
1.34036 -0.978719 0.804738 
1.34041 -0.978435 0.804185 
1.34008 -0.976939 0.802951 
1.33983 -0.976407 0.80283 
1.3403 -0.977549 0.803212 
1.34041 -0.978014 0.803595 
1.34089 -0.976005 0.803835 
1.34052 -0.975644 0.803567 
1.34125 -0.976433 0.80425 
1.34143 -0.976781 0.804727 
1.34148 -0.977119 0.805376 
1.33151 -0.818492 0.955683 
1.33118 -0.819205 0.953682 
1.33063 -0.819457 0.952882 
1.32998 -0.819708 0.952062 
1.32774 -0.819938 0.950924 
1.32732 -0.816552 0.959882 
1.32965 -0.81706 0.959065 
1.33037 -0.817395 0.958343 
1.33099 -0.817719 0.957625 
1.25869 -0.801942 0.918909 
1.25891 -0.798779 0.918422 
1.25912 -0.795205 0.918606 
1.2592 -0.792597 0.919793 
1.25917 -0.790106 0.922371 
1.25909 -0.788388 0.925079 
1.25779 -0.777949 0.952712 
1.25759 -0.777448 0.955875 
1.25733 -0.777614 0.959447 
1.25708 -0.778794 0.962047 
1.25675 -0.781363 0.964527 
1.25645 -0.784064 0.966231 
1.25462 -0.804857 0.974001 
1.25685 -0.822735 0.92668 
1.24261 -0.797819 0.9163 
1.24254 -0.797768 0.917267 
1.24232 -0.800927 0.917755 
1.24236 -0.801179 0.916818 
1.24048 -0.821724 0.925526 
1.24052 -0.822067 0.924623 
1.2382 -0.803503 0.973749 
1.23825 -0.803846 0.972846 
1.24008 -0.783049 0.965076 
1.24005 -0.782615 0.965945 
1.24037 -0.780347 0.963373 
1.24035 -0.779746 0.964136 
1.24071 -0.777778 0.960893 
1.24071 -0.776975 0.96146 
1.24096 -0.776604 0.958292 
1.24101 -0.775646 0.958526 
1.24122 -0.776433 0.95472 
1.24129 -0.775465 0.954671 
1.24142 -0.776933 0.951558 
1.24149 -0.775998 0.951313 
1.24272 -0.787377 0.923925 
1.2428 -0.786509 0.923495 
1.2428 -0.789091 0.921216 
1.24289 -0.788333 0.920619 
1.24283 -0.791586 0.918638 
1.24292 -0.791019 0.917837 
1.24275 -0.79419 0.917451 
1.24283 -0.793962 0.916498 
1.26277 -0.787743 0.924903 
1.28886 -0.797846 0.93365 
1.28785 -0.789778 0.955002 
1.26145 -0.777233 0.952721 
1.26125 -0.776704 0.956078 
1.2877 -0.789324 0.957561 
1.28749 -0.789354 0.96048 
1.26097 -0.776885 0.959933 
1.26067 -0.778209 0.962868 
1.28728 -0.790217 0.962674 
1.28703 -0.792104 0.964636 
1.26031 -0.780985 0.965543 
1.28682 -0.794077 0.96594 
1.26001 -0.783854 0.967352 
1.25817 -0.804737 0.975157 
1.28553 -0.808573 0.971357 
1.28731 -0.822822 0.933651 
1.26048 -0.823301 0.92603 
1.32744 -0.815209 0.959382 
1.32794 -0.815919 0.95164 
1.32771 -0.814 0.956713 
1.32767 -0.813906 0.957326 
1.32762 -0.813936 0.958029 
1.32756 -0.814182 0.958564 
1.3275 -0.814686 0.959052 
1.32977 -0.816238 0.958654 
1.32973 -0.81678 0.958963 
1.32925 -0.815026 0.956526 
1.32946 -0.815105 0.957078 
1.32966 -0.815319 0.957714 
1.32976 -0.81567 0.958203 
1.33003 -0.815752 0.955849 
1.33039 -0.815974 0.956247 
1.33075 -0.816341 0.95672 
1.33094 -0.816789 0.957101 
1.331 -0.817418 0.957479 
1.33036 -0.81632 0.954808 
1.33078 -0.816669 0.95496 
1.33121 -0.817167 0.95517 
1.33143 -0.817696 0.955381 
1.33152 -0.818377 0.95564 
1.26288 -0.792258 0.919245 
1.28896 -0.801156 0.929251 
1.28893 -0.799196 0.931426 
1.26285 -0.789567 0.922027 
1.26257 -0.799058 0.917707 
1.28876 -0.805972 0.927922 
1.28891 -0.803257 0.928165 
1.2628 -0.795197 0.917906 
1.26233 -0.802413 0.918226 
1.28859 -0.808321 0.928234 
1.32786 -0.818595 0.950422 
1.32797 -0.816741 0.950608 
1.32796 -0.816249 0.951115 
1.32791 -0.817981 0.950328 
1.32795 -0.817277 0.950363 
1.33006 -0.819428 0.951961 
1.3301 -0.818815 0.951837 
1.32969 -0.816934 0.952239 
1.32943 -0.816517 0.952582 
1.32993 -0.81751 0.951923 
1.33006 -0.818094 0.951798 
1.33052 -0.817008 0.95351 
1.33013 -0.81659 0.95363 
1.3309 -0.817584 0.95343 
1.33111 -0.81817 0.953456 
1.33119 -0.818884 0.953593 
1.32479 -0.83072 1.15906 
1.3244 -0.829724 1.1572 
1.32383 -0.829312 1.15648 
1.32316 -0.828894 1.15576 
1.32088 -0.828283 1.15485 
1.32073 -0.832702 1.16336 
1.32303 -0.83235 1.1624 
1.32374 -0.832012 1.16166 
1.32433 -0.831667 1.16094 
1.25046 -0.794998 1.14775 
1.25062 -0.792515 1.14978 
1.25078 -0.790263 1.15256 
1.25087 -0.789399 1.15529 
1.25089 -0.789657 1.15887 
1.25087 -0.790532 1.16195 
1.2504 -0.80417 1.18818 
1.25031 -0.806196 1.19067 
1.25018 -0.808973 1.19293 
1.25004 -0.811704 1.19379 
1.24983 -0.815273 1.19354 
1.24964 -0.818358 1.19267 
1.24841 -0.838079 1.18239 
1.24922 -0.814723 1.13747 
1.23424 -0.790898 1.14928 
1.2342 -0.791583 1.14996 
1.23404 -0.794065 1.14794 
1.23406 -0.793533 1.14713 
1.2328 -0.81379 1.13766 
1.23282 -0.81334 1.1368 
1.23198 -0.837591 1.18344 
1.23199 -0.837146 1.18258 
1.23323 -0.81742 1.19286 
1.23322 -0.817779 1.19376 
1.23341 -0.81434 1.19373 
1.23342 -0.814507 1.19468 
1.23362 -0.810771 1.19398 
1.23364 -0.810655 1.19496 
1.23377 -0.80804 1.19312 
1.2338 -0.807576 1.19399 
1.2339 -0.805263 1.19086 
1.23394 -0.804578 1.19155 
1.23398 -0.803238 1.18837 
1.23403 -0.802428 1.18891 
1.23446 -0.7896 1.16214 
1.23451 -0.788694 1.1625 
1.23447 -0.788724 1.15906 
1.23453 -0.787771 1.15922 
1.23444 -0.788467 1.15548 
1.2345 -0.787494 1.15536 
1.23437 -0.78933 1.15275 
1.23441 -0.788463 1.15228 
1.25453 -0.789836 1.16227 
1.28107 -0.802123 1.16026 
1.2807 -0.812659 1.18053 
1.25405 -0.803565 1.18868 
1.25396 -0.805715 1.19132 
1.28064 -0.814268 1.18258 
1.28053 -0.816466 1.1845 
1.25382 -0.808713 1.19376 
1.25365 -0.811792 1.19473 
1.28041 -0.818684 1.18533 
1.28026 -0.82141 1.18524 
1.25343 -0.815649 1.19446 
1.28012 -0.823704 1.18464 
1.25323 -0.818921 1.19353 
1.25199 -0.838728 1.18321 
1.27926 -0.837455 1.17747 
1.27991 -0.818844 1.14168 
1.25283 -0.814482 1.13657 
1.32081 -0.831432 1.16402 
1.32104 -0.826126 1.15832 
1.32096 -0.82863 1.16314 
1.32094 -0.829022 1.16362 
1.32092 -0.829568 1.16406 
1.32089 -0.830134 1.16424 
1.32085 -0.830833 1.16419 
1.32313 -0.831491 1.16274 
1.32311 -0.832085 1.16254 
1.32251 -0.82912 1.16223 
1.32274 -0.829572 1.16254 
1.32297 -0.830186 1.1628 
1.32309 -0.83078 1.16286 
1.32328 -0.829067 1.16123 
1.32365 -0.829504 1.16132 
1.32403 -0.830085 1.16136 
1.32425 -0.830661 1.16128 
1.32434 -0.831356 1.16106 
1.32358 -0.82866 1.16011 
1.32401 -0.828995 1.15995 
1.32445 -0.829469 1.15971 
1.32469 -0.829968 1.15945 
1.3248 -0.83061 1.15912 
1.25452 -0.788631 1.15513 
1.28107 -0.801052 1.15486 
1.28108 -0.801367 1.15777 
1.25455 -0.788908 1.15899 
1.25425 -0.792035 1.14905 
1.28089 -0.803286 1.15039 
1.28101 -0.801647 1.15257 
1.25442 -0.7896 1.15205 
1.25408 -0.79467 1.1469 
1.28077 -0.805093 1.14885 
1.32096 -0.827009 1.15552 
1.32104 -0.825906 1.15702 
1.32105 -0.825959 1.15772 
1.321 -0.82653 1.15591 
1.32103 -0.826084 1.15646 
1.32323 -0.828628 1.1559 
1.32325 -0.82813 1.15627 
1.32282 -0.827183 1.15794 
1.32258 -0.827172 1.15849 
1.32307 -0.827323 1.1573 
1.3232 -0.827615 1.15678 
1.3237 -0.828149 1.15873 
1.32331 -0.827975 1.15912 
1.32409 -0.828462 1.15824 
1.32431 -0.828861 1.15782 
1.3244 -0.829441 1.15738 
1.3241 -0.889728 1.23336 
1.32367 -0.888111 1.23201 
1.32308 -0.88748 1.2315 
1.32239 -0.886828 1.23099 
1.3201 -0.88596 1.2304 
1.32012 -0.893232 1.23665 
1.32241 -0.892513 1.23587 
1.32309 -0.891912 1.23531 
1.32368 -0.891315 1.23475 
1.24923 -0.853511 1.23689 
1.2494 -0.851961 1.23969 
1.24958 -0.850899 1.24311 
1.24968 -0.85112 1.24597 
1.24977 -0.85269 1.24919 
1.24981 -0.85465 1.25173 
1.24986 -0.877083 1.27099 
1.24983 -0.879891 1.27254 
1.24976 -0.883312 1.27361 
1.24966 -0.88617 1.27339 
